ply
format ascii 1.0
element vertex 640
property float x
property float y
property float z
property uchar red
property uchar green
property uchar blue
end_header
-0.200011849403381348 -0.00435537844896316528 0.508012473583221436 192 62 62
-0.700232326984405518 0.741713762283325195 -0.443150311708450317 70 70 184
-1.22859537601470947 -0.766644716262817383 -0.720171689987182617 35 35 219
-0.259896427392959595 0.303721427917480469 -0.210444420576095581 100 100 154
-0.343530267477035522 0.457217097282409668 -0.171399995684623718 105 105 149
-0.559953927993774414 -0.668101370334625244 -0.059258095920085907 119 119 135
-0.71019822359085083 0.745664060115814209 -0.866679489612579346 16 16 238
-1.53599679470062256 -0.593891739845275879 0.480493068695068359 188 66 66
-0.628845870494842529 -0.708692193031311035 0.322196513414382935 168 86 86
-1.46954584121704102 0.647708773612976074 0.0435717664659023285 133 121 121
-1.73385274410247803 0.318528026342391968 0.561485588550567627 199 55 55
-0.680618643760681152 0.733481764793395996 0.897110044956207275 241 13 13
-1.65633249282836914 -0.457414150238037109 -0.834739267826080322 21 21 233
-0.701681673526763916 0.742297887802124023 -0.739988565444946289 33 33 221
-1.78172564506530762 0.170014888048171997 -0.630706071853637695 47 47 207
-1.79788398742675781 0.0581475459039211273 0.113810203969478607 142 112 112
-0.442904382944107056 0.574146747589111328 -0.508315861225128174 62 62 192
-1.79936778545379639 -0.0317972823977470398 -0.0527978576719760895 120 120 134
-1.33090686798095703 0.728354752063751221 -0.0621210336685180664 119 119 135
-1.11153173446655273 0.792187273502349854 0.758915126323699951 224 30 30
-1.44057059288024902 -0.667755663394927979 -0.602997064590454102 50 50 204
-0.514051437377929688 -0.63549506664276123 -0.757292628288269043 30 30 224
-0.495072275400161743 0.620522379875183105 0.0512970127165317535 134 120 120
-1.69999468326568604 -0.387307852506637573 -0.335064709186553955 84 84 170
-1.47141468524932861 0.646349906921386719 -0.272265106439590454 92 92 162
-0.606010794639587402 -0.696256101131439209 -0.29981878399848938 89 89 165
-0.401497155427932739 -0.530843079090118408 -0.587157249450683594 52 52 202
-1.2518543004989624 -0.759321689605712891 -0.776001155376434326 28 28 226
-1.6899409294128418 0.404946267604827881 0.58908003568649292 202 52 52
-0.921765565872192383 0.796165406703948975 0.301354527473449707 165 89 89
-1.7619621753692627 0.243749082088470459 0.656576395034790039 211 43 43
-1.75982236862182617 -0.250339776277542114 0.718070149421691895 219 35 35
-0.387744724750518799 -0.514920830726623535 -0.675207674503326416 41 41 213
-0.286915481090545654 -0.36264374852180481 -0.955713868141174316 5 5 249
-0.387850821018218994 -0.515047013759613037 0.266917914152145386 161 93 93
-1.2990795373916626 -0.741991519927978516 0.162323474884033203 148 106 106
-0.626183032989501953 0.707291185855865479 -0.163383588194847107 106 106 148
-0.599275887012481689 0.692401766777038574 -0.447830796241760254 70 70 184
-0.55177074670791626 0.662639081478118896 -0.716489255428314209 36 36 218
-1.55390393733978271 0.577226579189300537 -0.985678732395172119 1 1 253
-0.740937530994415283 -0.756892740726470947 0.18678148090839386 151 103 103
-0.987442553043365479 -0.799901425838470459 -0.707130014896392822 37 37 217
-0.337906450033187866 -0.449034661054611206 -0.194561481475830078 102 102 152
-0.202905327081680298 0.0681181401014328003 -0.383065670728683472 78 78 176
-0.260211348533630371 0.304487705230712891 0.365005433559417725 174 80 80
-1.68510222434997559 0.41307985782623291 0.348384082317352295 171 83 83
-0.207453668117523193 0.108951017260551453 -0.739430606365203857 33 33 221
-0.370270431041717529 -0.49339708685874939 -0.818812847137451172 23 23 231
-1.67163050174713135 -0.434640586376190186 0.956507682800292969 249 5 5
-0.279778599739074707 0.348254382610321045 -0.830770790576934814 21 21 233
-0.253306001424789429 0.287137687206268311 -0.820352435111999512 22 22 232
-1.79474925994873047 0.0915078744292259216 0.981585264205932617 252 2 2
-0.229284629225730896 0.214471012353897095 0.712931275367736816 218 36 36
-1.61770880222320557 0.508365809917449951 0.0263177398592233658 130 124 124
-1.07888734340667725 0.796100974082946777 -0.641965627670288086 45 45 209
-1.63914799690246582 0.481133908033370972 -0.621007621288299561 48 48 206
-0.208852887153625488 -0.118685521185398102 -0.335166007280349731 84 84 170
-1.67252206802368164 -0.433259844779968262 0.257850587368011475 160 94 94
-0.939536213874816895 -0.797711789608001709 0.585927605628967285 202 52 52
-0.912402808666229248 -0.795189738273620605 -0.245383024215698242 96 96 158
-1.48982501029968262 -0.63251197338104248 0.509060978889465332 192 62 62
-0.345502287149429321 0.460035562515258789 0.651373445987701416 210 44 44
-1.44358265399932861 0.665758490562438965 0.857988953590393066 236 18 18
-1.78787493705749512 -0.138755634427070618 0.630216658115386963 207 47 47
-1.32079684734344482 0.732863783836364746 -0.781494855880737305 27 27 227
-1.63282549381256104 -0.48941996693611145 0.808493256568908691 230 24 24
-0.480043649673461914 0.607984721660614014 0.801957249641418457 229 25 25
-1.02594184875488281 -0.799579262733459473 0.832672715187072754 233 21 21
-0.318433701992034912 0.418888270854949951 0.397953927516937256 178 76 76
-1.72835659980773926 0.330902725458145142 0.753839254379272461 223 31 31
-1.41362524032592773 0.684773087501525879 0.805544614791870117 230 24 24
-0.555525600910186768 -0.665163516998291016 0.708106756210327148 217 37 37
-1.38246488571166992 -0.702652573585510254 0.406462490558624268 179 75 75
-1.53937506675720215 -0.590825319290161133 -0.789163410663604736 26 26 228
-1.07123959064483643 -0.796821773052215576 -0.515220582485198975 61 61 193
-1.78322672843933105 -0.162959650158882141 -0.72647172212600708 34 34 220
-0.754522323608398438 0.761407077312469482 -0.294592887163162231 89 89 165
-1.70035994052886963 -0.386646956205368042 -0.601071774959564209 50 50 204
-0.725557148456573486 0.75145268440246582 0.336116701364517212 170 84 84
-0.532112300395965576 -0.648907601833343506 -0.0230432618409395218 124 124 130
-0.968631207942962646 -0.799384772777557373 -0.0781276598572731018 117 117 137
-0.804779946804046631 0.775815129280090332 -0.459342449903488159 68 68 186
-1.79987978935241699 0.0138667086139321327 0.284141987562179565 163 91 91
-1.50684785842895508 -0.618955016136169434 0.504082083702087402 191 63 63
-0.367369472980499268 0.489671945571899414 0.525046169757843018 194 60 60
-1.44533514976501465 0.664587557315826416 -0.0135224862024188042 125 125 129
-0.200753688812255859 -0.034717898815870285 0.360182791948318481 173 81 81
-1.24914371967315674 -0.760215401649475098 0.790760517120361328 228 26 26
-0.815646708011627197 0.778468906879425049 0.42097356915473938 181 73 73
-0.200085371732711792 0.0116870654746890068 0.316184639930725098 167 87 87
-0.221963390707969666 -0.186169400811195374 -0.955896914005279541 5 5 249
-1.79764842987060547 0.0612936168909072876 -0.390854865312576294 77 77 177
-0.417995363473892212 0.548881232738494873 -0.0433575920760631561 121 121 133
-1.56911039352416992 -0.562239527702331543 -0.374268114566802979 79 79 175
-1.54350399971008301 0.587029337882995605 0.661080420017242432 211 43 43
-0.474516570568084717 -0.603214025497436523 -0.640802681446075439 45 45 209
-1.65646827220916748 -0.457219213247299194 -0.60395503044128418 50 50 204
-0.786094486713409424 0.770872533321380615 0.36007612943649292 173 81 81
-0.329820483922958374 0.436874598264694214 0.985186398029327393 253 1 1
-0.547135293483734131 0.659479796886444092 -0.657629430294036865 43 43 211
-1.60405707359313965 -0.524514138698577881 -0.721480369567871094 35 35 219
-1.57397985458374023 0.557267487049102783 0.549418747425079346 197 57 57
-1.00392699241638184 -0.799990355968475342 -0.570120930671691895 54 54 200
-0.259507060050964355 -0.302770882844924927 -0.725597679615020752 34 34 220
-0.609590649604797363 -0.698269665241241455 -0.369659990072250366 80 80 174
-1.77780485153198242 -0.187135517597198486 0.376485556364059448 175 79 79
-0.414394944906234741 -0.545038282871246338 -0.195289090275764465 102 102 152
-0.833094894886016846 0.782395482063293457 -0.0443448200821876526 121 121 133
-1.21277070045471191 -0.771186530590057373 -0.977658271789550781 2 2 252
-1.2895580530166626 -0.745758771896362305 -0.146654263138771057 108 108 146
-1.67009186744689941 0.437009036540985107 -0.744030475616455078 32 32 222
-0.332898557186126709 -0.441560477018356323 -0.94048839807510376 7 7 247
-0.402979791164398193 0.532509982585906982 -0.663816452026367188 42 42 212
-1.77596437931060791 0.194626212120056152 -0.378723502159118652 79 79 175
-1.75911557674407959 -0.252474814653396606 0.372507482767105103 174 80 80
-0.402137428522109985 -0.531564056873321533 -0.303287297487258911 88 88 166
-1.44941270351409912 -0.661836981773376465 -0.526580929756164551 60 60 194
-0.63145822286605835 -0.710054159164428711 -0.897133708000183105 13 13 241
-0.59391331672668457 0.689270317554473877 -0.599751055240631104 51 51 203
-1.51041638851165771 0.61601555347442627 0.210854694247245789 154 100 100
-1.78986191749572754 -0.126957148313522339 0.00742679135873913765 128 126 126
-1.72512590885162354 0.337923586368560791 0.281848341226577759 163 91 91
-1.45592248439788818 0.657369494438171387 -0.770066559314727783 29 29 225
-1.70159494876861572 -0.384401589632034302 0.894945263862609863 241 13 13
-0.211176604032516479 0.133257806301116943 -0.895039796829223633 13 13 241
-0.200753375887870789 -0.0347106121480464935 -0.795407354831695557 26 26 228
-1.45928263664245605 -0.65502631664276123 -0.926641702651977539 9 9 245
-1.16531467437744141 -0.78273308277130127 0.555137455463409424 198 56 56
-1.70133554935455322 -0.384874492883682251 0.623151898384094238 206 48 48
-0.893135368824005127 -0.792830348014831543 0.786479294300079346 227 27 27
-1.50223517417907715 -0.622703671455383301 -0.287093460559844971 90 90 164
-1.65117931365966797 -0.464720845222473145 -0.782868802547454834 27 27 227
-0.573510289192199707 -0.67683565616607666 0.775118827819824219 226 28 28
-0.63788217306137085 0.713351726531982422 0.688695549964904785 215 39 39
-0.492682158946990967 0.618569791316986084 0.254685550928115845 159 95 95
-1.2866523265838623 0.746880471706390381 -0.4699535071849823 67 67 187
-0.279492437839508057 -0.347662001848220825 -0.676233410835266113 41 41 213
-0.200178816914558411 0.0169135574251413345 -0.150468811392784119 108 108 146
-1.43954074382781982 -0.668433964252471924 0.481548279523849487 188 66 66
-1.09324467182159424 -0.794547319412231445 -0.296816706657409668 89 89 165
-1.68358826637268066 0.415580332279205322 0.353530466556549072 172 82 82
-1.59760522842407227 -0.531853377819061279 0.791007876396179199 228 26 26
-0.7670249342918396 -0.765325188636779785 0.530568599700927734 195 59 59
-0.87486422061920166 0.790152549743652344 -0.188448414206504822 103 103 151
-1.76069819927215576 0.247665703296661377 0.0517244152724742889 134 120 120
-1.60951828956604004 -0.518157720565795898 -0.182690337300300598 104 104 150
-0.362148702144622803 0.482851654291152954 0.131726384162902832 144 110 110
-0.440624922513961792 -0.57192617654800415 -0.114504463970661163 112 112 142
-0.372526794672012329 -0.496263414621353149 0.339085757732391357 170 84 84
-1.59845030307769775 0.530902326107025146 -0.622000336647033691 48 48 206
-0.768309354782104492 0.76571500301361084 -0.409292161464691162 75 75 179
-1.58186221122741699 0.549032270908355713 -0.230063080787658691 98 98 156
-1.64977025985717773 -0.466688930988311768 0.45267564058303833 185 69 69
-1.26712608337402344 -0.754084646701812744 0.0500311031937599182 133 121 121
-1.24265444278717041 -0.76231151819229126 0.65142136812210083 210 44 44
-0.613446533679962158 -0.700411617755889893 0.336677253246307373 170 84 84
-0.200738966464996338 -0.0343773923814296722 -0.715829312801361084 36 36 218
-1.21661841869354248 0.770114541053771973 -0.869713664054870605 16 16 238
-1.08402037620544434 -0.795575618743896484 -0.591589510440826416 52 52 202
-0.781597435474395752 -0.76961052417755127 0.82175743579864502 232 22 22
-1.3501049280166626 0.719323694705963135 0.678702592849731445 214 40 40
-0.935376882553100586 0.797385632991790771 0.632111310958862305 208 46 46
-1.28550469875335693 0.747319936752319336 0.923418700695037842 245 9 9
-0.339689314365386963 -0.451652288436889648 -0.28234022855758667 91 91 163
-1.64065229892730713 -0.479129105806350708 -0.765239357948303223 29 29 225
-1.75216972827911377 0.272471368312835693 0.938788831233978271 247 7 7
-0.654796421527862549 0.721688628196716309 -0.208203732967376709 100 100 154
-0.49045524001121521 0.616736710071563721 -0.0757416337728500366 117 117 137
-0.200004175305366516 0.00258508278056979179 -0.759687125682830811 30 30 224
-0.928483068943023682 0.796796917915344238 0.161490753293037415 148 106 106
-1.08399486541748047 0.795578300952911377 -0.508766412734985352 62 62 192
-0.562344789505004883 0.669669985771179199 0.119221955537796021 142 112 112
-0.208531409502029419 -0.116522438824176788 -0.798262715339660645 25 25 229
-1.67288029193878174 0.432703226804733276 -0.48910948634147644 65 65 189
-0.791784465312957764 -0.772428810596466064 0.281370103359222412 163 91 91
-0.317553222179412842 0.417452245950698853 -0.00142713100649416447 127 127 127
-0.247766613960266113 0.272295683622360229 0.740429878234863281 221 33 33
-1.79191994667053223 0.113413922488689423 0.973178505897521973 251 3 3
-1.79838299751281738 -0.0508395135402679443 0.292231500148773193 164 90 90
-0.72877269983291626 0.752619266510009766 -0.677865564823150635 41 41 213
-1.02174520492553711 -0.799704432487487793 -0.13839450478553772 109 109 145
-0.9951973557472229 -0.799985587596893311 -0.190337091684341431 103 103 151
-0.294970929622650146 -0.378066122531890869 0.988686859607696533 253 1 1
-0.222376585006713867 0.187887817621231079 -0.194441244006156921 102 102 152
-0.975415468215942383 0.799622178077697754 0.964935541152954102 250 4 4
-0.855284333229064941 -0.786801993846893311 0.170447215437889099 149 105 105
-1.40607130527496338 -0.689279377460479736 0.492734909057617188 190 64 64
-1.15179681777954102 0.785466551780700684 -0.0345630310475826263 123 123 131
-0.601218998432159424 -0.69352269172668457 -0.538882672786712646 58 58 196
-1.62655580043792725 -0.497421205043792725 0.352575153112411499 172 82 82
-1.06611311435699463 -0.797263503074645996 0.827942967414855957 233 21 21
-0.237150877714157104 0.24095897376537323 -0.920020639896392822 10 10 244
-1.15647971630096436 -0.784547090530395508 0.0195061769336462021 129 125 125
-0.209069535136222839 0.120120741426944733 0.0335442014038562775 131 123 123
-0.521631538867950439 -0.641220450401306152 -0.654726147651672363 44 44 210
-0.945548653602600098 0.798144757747650146 0.517442464828491211 193 61 61
-1.08670008182525635 -0.7952880859375 -0.081973537802696228 117 117 137
-1.19194543361663818 -0.776631772518157959 0.992505431175231934 254 0 0
-0.200470373034477234 0.0274294763803482056 0.398066788911819458 178 76 76
-1.7830657958984375 -0.163731187582015991 0.779223442077636719 226 28 28
-0.308848738670349121 -0.402877062559127808 -0.629170894622802734 47 47 207
-1.64526355266571045 -0.472900569438934326 -0.228588417172431946 98 98 156
-0.320839852094650269 0.422778278589248657 -0.525134742259979248 60 60 194
-1.28069615364074707 -0.749139308929443359 -0.725930273532867432 34 34 220
-0.215659663081169128 0.157512649893760681 0.452909886837005615 185 69 69
-1.12858474254608154 0.789598584175109863 0.821256697177886963 232 22 22
-1.69612574577331543 -0.394219398498535156 -0.375810146331787109 79 79 175
-0.208519279956817627 0.116439931094646454 -0.335260152816772461 84 84 170
-1.77799320220947266 -0.186350688338279724 -0.803462326526641846 25 25 229
-0.708234667778015137 -0.744897961616516113 -0.120834790170192719 112 112 142
-1.2194678783416748 0.769307374954223633 0.0287020709365606308 131 123 123
-0.72809445858001709 0.752374470233917236 -0.767884790897369385 29 29 225
-1.08147943019866943 0.795839905738830566 0.350182592868804932 172 82 82
-0.205001264810562134 -0.0893141552805900574 -0.294011950492858887 90 90 164
-0.327716827392578125 -0.433630436658859253 -0.0800370126962661743 117 117 137
-1.68295407295227051 -0.416621804237365723 -0.221003755927085876 99 99 155
-0.301924556493759155 -0.390756547451019287 0.613662183284759521 205 49 49
-1.25397491455078125 0.758615016937255859 0.683616936206817627 214 40 40
-1.61993837356567383 -0.505644559860229492 0.857686161994934082 236 18 18
-0.585938930511474609 0.684509634971618652 -0.661705076694488525 43 43 211
-0.200285598635673523 0.0213746633380651474 -0.402136653661727905 76 76 178
-0.208610296249389648 0.117056958377361298 0.914160668849945068 244 10 10
-1.76604950428009033 -0.230582296848297119 -0.136561691761016846 110 110 144
-1.69270515441894531 -0.400199353694915771 -0.248560264706611633 95 95 159
-1.48645472526550293 0.635107755661010742 0.891015470027923584 241 13 13
-1.39736843109130859 -0.694333016872406006 0.160015583038330078 147 107 107
-1.48192238807678223 0.638553619384765625 0.546704351902008057 197 57 57
-0.996574342250823975 -0.799992680549621582 0.205172076821327209 153 101 101
-0.400083363056182861 0.529244780540466309 -0.368059605360031128 80 80 174
-0.226026788353919983 -0.202399298548698425 0.98966515064239502 253 1 1
-0.272919952869415283 -0.333698362112045288 0.424080640077590942 181 73 73
-0.39195096492767334 0.519881129264831543 0.0815359130501747131 137 117 117
-0.63690108060836792 0.712852835655212402 -0.657575607299804688 43 43 211
-0.214091107249259949 0.149489879608154297 0.501082241535186768 191 63 63
-1.2225954532623291 -0.768408298492431641 -0.727598011493682861 34 34 220
-1.66472387313842773 -0.44513171911239624 -0.561726748943328857 55 55 199
-1.41212201118469238 -0.685678839683532715 0.65854334831237793 211 43 43
-0.259323209524154663 0.30232083797454834 -0.397889316082000732 76 76 178
-0.255173981189727783 0.291948974132537842 -0.376867502927780151 79 79 175
-1.77058660984039307 -0.214933082461357117 -0.527742564678192139 60 60 194
-1.09703254699707031 -0.794093608856201172 -0.751776754856109619 31 31 223
-0.435375422239303589 0.56674426794052124 -0.658019900321960449 43 43 211
-1.01503705978393555 0.799858689308166504 -0.111933261156082153 113 113 141
-1.45835328102111816 -0.655676960945129395 0.912195146083831787 243 11 11
-0.201250359416007996 -0.0447104237973690033 0.0762985497713088989 137 117 117
-1.44992291927337646 -0.661490261554718018 -0.272611677646636963 92 92 162
-1.73629045486450195 0.312851846218109131 -0.986173868179321289 1 1 253
-1.67221462726593018 0.433736592531204224 0.203882738947868347 153 101 101
-1.34942483901977539 0.719654262065887451 -0.343429237604141235 83 83 171
-0.562539994716644287 0.669797539710998535 0.583144664764404297 201 53 53
-1.04439008235931396 0.798767507076263428 0.791052401065826416 228 26 26
-1.44761693477630615 -0.663052797317504883 -0.63292396068572998 46 46 208
-0.406223297119140625 -0.536124229431152344 0.175949916243553162 149 105 105
-1.48705577850341797 0.634646892547607422 -0.123979292809963226 111 111 143
-1.79876613616943359 -0.044415447860956192 -0.280988484621047974 91 91 163
-1.1664348840713501 -0.782495617866516113 -0.59094768762588501 52 52 202
-1.79826772212982178 -0.0526186786592006683 -0.24823547899723053 95 95 159
-1.02820217609405518 0.799502730369567871 -0.27891075611114502 91 91 163
-0.699327170848846436 0.741347312927246094 0.164916068315505981 148 106 106
-1.76786065101623535 0.224477112293243408 0.641461312770843506 209 45 45
-1.13112437725067139 -0.78918081521987915 -0.0730174481868743896 118 118 136
-1.66558253765106201 0.443846702575683594 0.320000141859054565 168 86 86
-1.54684805870056152 0.583915352821350098 -0.532002866268157959 59 59 195
-1.06553268432617188 -0.79731142520904541 -0.0645065009593963623 119 119 135
-0.264671117067337036 0.315105408430099487 -0.161476567387580872 106 106 148
-1.77291357517242432 -0.206408947706222534 -0.913079977035522461 11 11 243
-1.43438374996185303 -0.671796619892120361 0.345920205116271973 171 83 83
-0.226801156997680664 -0.205337643623352051 0.965457379817962646 250 4 4
-1.07775342464447021 0.796212553977966309 -0.129864022135734558 110 110 144
-1.7444908618927002 -0.292802482843399048 -0.778756022453308105 28 28 226
-0.39174923300743103 0.519645094871520996 -0.378920108079910278 79 79 175
-0.201372161507606506 0.0468356609344482422 0.479662299156188965 188 66 66
-0.368202000856399536 -0.490745663642883301 -0.0365255549550056458 122 122 132
-1.62393593788146973 0.500703513622283936 -0.456910818815231323 69 69 185
-0.679353594779968262 0.732929646968841553 -0.347728222608566284 83 83 171
-0.249981507658958435 0.278338372707366943 0.502505779266357422 191 63 63
-0.200073331594467163 -0.0108314948156476021 0.856058776378631592 236 18 18
-0.477872073650360107 -0.606120824813842773 -0.168833643198013306 105 105 149
-0.672266840934753418 -0.729788303375244141 0.779138028621673584 226 28 28
-1.53620457649230957 -0.593704164028167725 0.178997516632080078 150 104 104
-1.73708224296569824 -0.310981929302215576 0.0648823902010917664 135 119 119
-0.583399653434753418 0.682967185974121094 0.0550966821610927582 134 120 120
-0.249846145510673523 0.277973353862762451 0.719308137893676758 219 35 35
-1.77771675586700439 0.187501147389411926 0.544259011745452881 196 58 58
-1.52004003524780273 0.607913076877593994 0.397932827472686768 178 76 76
-0.374931007623672485 -0.499288231134414673 -0.630274593830108643 47 47 207
-0.2227984219789505 -0.189625144004821777 -0.446526587009429932 70 70 184
-0.607412338256835938 0.697047293186187744 0.273049741983413696 162 92 92
-1.79705810546875 0.0685441046953201294 0.728902876377105713 220 34 34
-1.79999232292175293 0.00350829935632646084 -0.487676739692687988 65 65 189
-0.453220725059509277 0.583979785442352295 0.159850507974624634 147 107 107
-1.79940998554229736 -0.0307184252887964249 0.827219843864440918 232 22 22
-1.62329542636871338 0.501500546932220459 -0.312256515026092529 87 87 167
-1.06801903247833252 0.79710310697555542 0.0561319999396800995 134 120 120
-0.764853835105895996 0.764660894870758057 0.445455998182296753 184 70 70
-0.229049727320671082 0.213625058531761169 0.501871407032012939 191 63 63
-1.79636847972869873 -0.076139889657497406 0.632413744926452637 208 46 46
-1.50414681434631348 -0.621156930923461914 -0.417116940021514893 74 74 180
-1.2820202112197876 0.748641848564147949 -0.838411867618560791 20 20 234
-1.61042642593383789 -0.517087578773498535 -0.323202818632125854 86 86 168
-0.205727383494377136 0.0955563187599182129 0.0646063834428787231 135 119 119
-0.345572710037231445 0.460135757923126221 -0.384653180837631226 78 78 176
-1.69847965240478516 -0.390033543109893799 0.620471775531768799 206 48 48
-0.531092047691345215 0.648170769214630127 0.520068228244781494 193 61 61
-1.76429295539855957 0.236339390277862549 0.641239047050476074 209 45 45
-1.52985739707946777 -0.599375605583190918 0.64349365234375 209 45 45
-1.79690647125244141 0.070286087691783905 0.691187918186187744 215 39 39
-0.296245366334915161 0.380433171987533569 -0.862162649631500244 17 17 237
-1.37354063987731934 0.707437217235565186 -0.224057644605636597 98 98 156
-1.79913651943206787 0.0371592976152896881 0.26770976185798645 161 93 93
-1.39709484577178955 -0.694489538669586182 0.491427034139633179 190 64 64
-0.339851737022399902 0.451889663934707642 0.650233983993530273 210 44 44
-0.473135262727737427 -0.602007925510406494 0.634796679019927979 208 46 46
-1.73989391326904297 -0.304231911897659302 -0.918733000755310059 10 10 244
-0.219438508152961731 0.175281926989555359 0.863312005996704102 237 17 17
-1.19418323040008545 -0.776075303554534912 -0.47912132740020752 66 66 188
-1.67264485359191895 -0.433069139719009399 -0.952799379825592041 6 6 248
-0.204969048500061035 -0.0890268236398696899 -0.460354268550872803 68 68 186
-0.200553819537162781 0.0297623854130506516 -0.979332804679870605 2 2 252
-0.664833426475524902 0.726404428482055664 0.00376247637905180454 127 127 127
-0.557434678077697754 0.66643524169921875 0.420457780361175537 181 73 73
-0.958871424198150635 0.798942089080810547 0.793544590473175049 228 26 26
-1.67372143268585205 0.431392520666122437 -0.195517793297767639 102 102 152
-1.61346757411956787 0.513475894927978516 -0.316224545240402222 87 87 167
-0.20341077446937561 -0.0737942978739738464 -0.0158134531229734421 125 125 129
-0.538940727710723877 0.653777003288269043 -0.754459023475646973 31 31 223
-0.638491213321685791 -0.713660538196563721 0.390374690294265747 177 77 77
-0.21412976086139679 0.149692937731742859 -0.678736627101898193 40 40 214
-0.811660826206207275 0.777514219284057617 -0.657035768032073975 43 43 211
-0.461677759885787964 -0.59178471565246582 -0.49410673975944519 64 64 190
-0.200151905417442322 -0.0155889419838786125 0.859655022621154785 237 17 17
-1.71695685386657715 0.35492667555809021 0.761194705963134766 224 30 30
-1.64587092399597168 0.472070753574371338 0.581607043743133545 201 53 53
-0.554680168628692627 -0.664597809314727783 0.760015130043029785 224 30 30
-0.20454813539981842 0.0851841270923614502 -0.187815353274345398 103 103 151
-1.72202038764953613 -0.3445090651512146 0.510382592678070068 192 62 62
-0.502028107643127441 0.626118183135986328 -0.0180833786725997925 125 125 129
-0.62488633394241333 0.706604361534118652 0.184980124235153198 151 103 103
-1.38256371021270752 -0.702598750591278076 -0.963176190853118896 4 4 250
-0.252056300640106201 0.283866524696350098 0.80259472131729126 229 25 25
-0.981050610542297363 -0.799775540828704834 -0.169859275221824646 105 105 149
-0.483533471822738647 -0.61095196008682251 -0.94858020544052124 6 6 248
-1.54022705554962158 -0.590046346187591553 -0.0595178045332431793 119 119 135
-0.200340941548347473 0.0233535263687372208 0.187363162636756897 151 103 103
-0.203120708465576172 -0.0705930963158607483 0.750542938709259033 223 31 31
-1.12899363040924072 -0.789531886577606201 0.593353331089019775 203 51 51
-0.627243399620056152 0.707850635051727295 0.841263234615325928 234 20 20
-1.33586812019348145 0.72608029842376709 -0.143348902463912964 109 109 145
-1.12328696250915527 0.790443122386932373 0.145583644509315491 146 108 108
-1.40743327140808105 0.688475251197814941 -0.992320477962493896 0 0 254
-0.366776645183563232 0.488905072212219238 0.603663742542266846 204 50 50
-0.398609369993209839 -0.527569234371185303 -0.184773638844490051 103 103 151
-0.936817049980163574 -0.797501027584075928 0.390938878059387207 177 77 77
-1.7681431770324707 0.223508447408676147 0.0681492239236831665 136 118 118
-1.33389079570770264 0.726991713047027588 0.412694782018661499 180 74 74
-1.74975502490997314 0.279047161340713501 0.777649641036987305 226 28 28
-1.67589223384857178 0.427983283996582031 0.509595930576324463 192 62 62
-1.60382175445556641 0.524784982204437256 0.671881139278411865 213 41 41
-0.224921301007270813 0.198123738169670105 -0.539554715156555176 58 58 196
-0.206152036786079407 0.0990222543478012085 0.0260151736438274384 130 124 124
-0.303597688674926758 -0.393730640411376953 -0.650076985359191895 44 44 210
-1.79015719890594482 -0.125106200575828552 0.678948402404785156 214 40 40
-1.68434953689575195 0.41432565450668335 0.619726359844207764 206 48 48
-0.369145452976226807 -0.491957873106002808 -0.89090275764465332 13 13 241
-1.60304415225982666 0.525678396224975586 0.872159421443939209 238 16 16
-1.45853424072265625 -0.65555042028427124 -0.866629838943481445 17 17 237
-1.78296184539794922 0.164227724075317383 -0.122832976281642914 111 111 143
-1.77601230144500732 -0.194435074925422668 -0.504570543766021729 63 63 191
-0.388030767440795898 -0.515260756015777588 -0.0686653852462768555 118 118 136
-1.57656311988830566 -0.554594457149505615 -0.513148903846740723 62 62 192
-1.79642999172210693 -0.0754938870668411255 -0.875095844268798828 15 15 239
-1.27107334136962891 -0.752674698829650879 0.482839435338973999 189 65 65
-0.388440936803817749 -0.515747487545013428 -0.708611488342285156 37 37 217
-1.33260512351989746 -0.727580785751342773 -0.211133718490600586 100 100 154
-1.48278939723968506 0.637898385524749756 0.59095466136932373 202 52 52
-1.7677074670791626 -0.225000679492950439 0.891395151615142822 241 13 13
-0.467622965574264526 -0.597138762474060059 0.571410417556762695 200 54 54
-0.942748308181762695 0.797948777675628662 -0.0868992060422897339 116 116 138
-0.924070119857788086 0.796388506889343262 0.553796112537384033 198 56 56
-1.55791556835174561 0.573349952697753906 0.41064375638961792 179 75 75
-0.670270144939422607 0.728888332843780518 -0.826434731483459473 22 22 232
-0.377708941698074341 0.502746284008026123 -0.411645293235778809 75 75 179
-0.228222236037254333 0.210615962743759155 0.605668127536773682 204 50 50
-0.562790811061859131 0.669961273670196533 0.731364607810974121 220 34 34
-0.783856570720672607 0.770247995853424072 -0.98265385627746582 2 2 252
-1.79955697059631348 0.0266215279698371887 0.183729782700538635 150 104 104
-0.331915527582168579 0.440071731805801392 -0.845156073570251465 19 19 235
-0.842895805835723877 0.78442227840423584 -0.974688351154327393 3 3 251
-0.289757639169692993 0.368178993463516235 -0.424128443002700806 73 73 181
-0.251744478940963745 -0.283043593168258667 0.747258305549621582 222 32 32
-0.604467570781707764 -0.695380568504333496 -0.413202822208404541 74 74 180
-0.361790657043457031 0.482378333806991577 0.699327945709228516 216 38 38
-1.79694628715515137 -0.06983233243227005 -0.459690213203430176 68 68 186
-1.73289167881011963 -0.320733100175857544 -0.711387872695922852 36 36 218
-0.559140980243682861 0.667565226554870605 0.680086731910705566 214 40 40
-0.543683826923370361 0.657096266746520996 0.664377033710479736 212 42 42
-0.837429285049438477 0.78330761194229126 0.893270015716552734 241 13 13
-0.301349729299545288 -0.389727860689163208 -0.368185341358184814 80 80 174
-1.79785370826721191 -0.0585613399744033813 0.494276076555252075 190 64 64
-0.225976720452308655 0.20220772922039032 0.748596847057342529 222 32 32
-0.942901492118835449 0.797959744930267334 -0.29512399435043335 89 89 165
-1.64173293113708496 0.477680712938308716 -0.309937626123428345 87 87 167
-1.42537391185760498 0.677537441253662109 0.85176551342010498 236 18 18
-1.62095832824707031 -0.50439155101776123 -0.268122613430023193 93 93 161
-1.68064236640930176 -0.420387983322143555 -0.61655128002166748 48 48 206
-1.79990994930267334 -0.0120007982477545738 -0.445978343486785889 70 70 184
-1.31691563129425049 0.734550535678863525 -0.809330463409423828 24 24 230
-1.68269515037536621 0.417046040296554565 0.376701474189758301 175 79 79
-1.05188238620758057 0.798315882682800293 0.255918920040130615 160 94 94
-0.393938183784484863 -0.522196412086486816 0.205828413367271423 153 101 101
-0.24025513231754303 0.250574797391891479 0.355408281087875366 172 82 82
-0.304727911949157715 -0.395723015069961548 -0.254565298557281494 95 95 159
-0.843558430671691895 0.784554660320281982 -0.295930594205856323 89 89 165
-1.74836540222167969 -0.282752901315689087 0.64631962776184082 209 45 45
-0.328291058540344238 -0.434519380331039429 -0.522418737411499023 60 60 194
-0.204176858067512512 -0.0816426128149032593 -0.04640217125415802 121 121 133
-1.38353109359741211 0.702071130275726318 0.435392051935195923 183 71 71
-1.00322830677032471 -0.799993515014648438 0.0872209742665290833 138 116 116
-1.06392431259155273 0.797441959381103516 0.530990421772003174 195 59 59
-0.287028074264526367 0.362865030765533447 0.717754006385803223 219 35 35
-0.271962165832519531 -0.331603586673736572 0.866773486137390137 238 16 16
-1.20027279853820801 0.77452617883682251 0.771982133388519287 225 29 29
-0.427331596612930298 0.558615148067474365 -0.581173241138458252 53 53 201
-1.77492189407348633 -0.198736280202865601 -0.0739253759384155273 118 118 136
-1.14465785026550293 0.78681260347366333 0.365341991186141968 174 80 80
-1.76602935791015625 -0.230649128556251526 -0.662055552005767822 43 43 211
-0.39909285306930542 0.528119862079620361 0.917450487613677979 244 10 10
-0.26949194073677063 0.326125681400299072 -0.493718624114990234 64 64 190
-0.488883405923843384 -0.615434646606445312 0.440277189016342163 183 71 71
-0.273862510919570923 -0.335744470357894897 -0.646104812622070312 45 45 209
-0.202466428279876709 -0.0627710744738578796 -0.911502242088317871 11 11 243
-1.79404020309448242 -0.0974687710404396057 -0.505913972854614258 62 62 192
-1.52795720100402832 0.601050138473510742 0.453714162111282349 185 69 69
-0.205437794327735901 0.0931176915764808655 0.854106783866882324 236 18 18
-0.243003815412521362 -0.25876009464263916 0.942817747592926025 247 7 7
-0.476258695125579834 -0.604727268218994141 -0.716050207614898682 36 36 218
-0.200813010334968567 -0.0360576547682285309 0.173322275280952454 149 105 105
-1.15383052825927734 0.78507077693939209 -0.781986713409423828 27 27 227
-0.210311084985733032 -0.128028973937034607 0.421362757682800293 181 73 73
-0.778593301773071289 0.768751621246337891 0.213274970650672913 154 100 100
-0.65803980827331543 -0.723231077194213867 -0.590689897537231445 52 52 202
-0.878742575645446777 0.79075700044631958 -0.451812207698822021 69 69 185
-1.12422037124633789 0.790296971797943115 -0.31316220760345459 87 87 167
-0.663733601570129395 -0.725895941257476807 0.33578723669052124 170 84 84
-1.07128071784973145 -0.796818077564239502 -0.341764986515045166 83 83 171
-1.60171329975128174 0.527201235294342041 0.803611814975738525 229 25 25
-1.38132166862487793 -0.703273594379425049 -0.446487993001937866 70 70 184
-0.648393154144287109 -0.718590736389160156 -0.227378144860267639 98 98 156
-1.76797306537628174 0.224092528223991394 0.0878066346049308777 138 116 116
-1.65040934085845947 -0.465797841548919678 -0.910643458366394043 11 11 243
-0.226388394832611084 0.203777015209197998 0.523166358470916748 194 60 60
-0.780363023281097412 0.769259154796600342 0.707608520984649658 217 37 37
-0.828157246112823486 -0.781325817108154297 -0.607667088508605957 50 50 204
-1.78266501426696777 -0.165636464953422546 0.680658280849456787 214 40 40
-1.58049380779266357 0.550478816032409668 0.395401418209075928 177 77 77
-1.22193789482116699 -0.768598437309265137 0.372463256120681763 174 80 80
-0.200921133160591125 -0.0383792854845523834 0.797730505466461182 229 25 25
-1.72686553001403809 -0.334165364503860474 0.760340750217437744 224 30 30
-1.28819775581359863 0.746285498142242432 0.0705961659550666809 136 118 118
-0.207594066858291626 0.109967388212680817 -0.832807421684265137 21 21 233
-1.04777407646179199 0.798572242259979248 0.0736909359693527222 136 118 118
-0.547946691513061523 0.660036206245422363 0.162977814674377441 148 106 106
-0.215726405382156372 -0.157844617962837219 -0.539796650409698486 58 58 196
-0.225114434957504272 -0.19887775182723999 -0.852946221828460693 18 18 236
-0.712638497352600098 0.74660789966583252 0.829105198383331299 233 21 21
-1.71407997608184814 -0.360679596662521362 -0.270846575498580933 92 92 162
-1.63883888721466064 -0.481544286012649536 -0.592128932476043701 52 52 202
-0.385205388069152832 -0.511886298656463623 0.429501086473464966 182 72 72
-1.79922938346862793 -0.0351050645112991333 -0.0230065882205963135 124 124 130
-1.79814314842224121 -0.0544749461114406586 0.269659608602523804 161 93 93
-1.22666037082672119 -0.767219066619873047 0.0988614782691001892 140 114 114
-1.50784289836883545 0.618138790130615234 0.67033761739730835 212 42 42
-1.08277332782745361 0.795706331729888916 0.0833076685667037964 138 116 116
-0.740985989570617676 -0.756909370422363281 -0.399974465370178223 76 76 178
-0.721282720565795898 0.749877750873565674 -0.357434660196304321 81 81 173
-1.79968917369842529 0.0222994722425937653 0.672039151191711426 213 41 41
-1.25527167320251465 -0.758179664611816406 0.273252725601196289 162 92 92
-1.31650757789611816 0.734726428985595703 0.474630951881408691 188 66 66
-0.25602450966835022 -0.294109612703323364 -0.852747917175292969 18 18 236
-0.287783294916152954 0.364345133304595947 0.803456604480743408 229 25 25
-1.5183253288269043 -0.60937577486038208 0.913479983806610107 243 11 11
-1.6618492603302002 -0.449394673109054565 0.205168917775154114 153 101 101
-1.74045431613922119 -0.302865386009216309 0.131377503275871277 144 110 110
-1.52600479125976562 -0.602759420871734619 -0.119677737355232239 112 112 142
-0.677577435970306396 -0.732150018215179443 0.229564279317855835 156 98 98
-1.21574759483337402 0.77035897970199585 0.549600303173065186 197 57 57
-1.38961184024810791 0.698714971542358398 -0.176602929830551147 104 104 150
-1.14517378807067871 -0.786717593669891357 -0.0195060521364212036 125 125 129
-0.469769716262817383 -0.599045753479003906 -0.287793874740600586 90 90 164
-0.477917253971099854 -0.606159746646881104 -0.915545105934143066 10 10 244
-1.4718785285949707 0.646011292934417725 -0.106552824378013611 113 113 141
-0.713701426982879639 -0.74701613187789917 0.911564350128173828 243 11 11
-0.503379642963409424 0.627190709114074707 -0.751034021377563477 31 31 223
-0.581129133701324463 0.681576967239379883 0.60275191068649292 204 50 50
-1.7996826171875 0.0225315429270267487 0.799378693103790283 229 25 25
-1.69305539131164551 0.399592608213424683 -0.776221036911010742 28 28 226
-1.77170050144195557 -0.210898920893669128 -0.433719366788864136 72 72 182
-1.01087045669555664 -0.799926161766052246 -0.517724812030792236 61 61 193
-0.406698912382125854 0.536650538444519043 -0.854970753192901611 18 18 236
-1.15678727626800537 -0.78448563814163208 -0.316741108894348145 87 87 167
-1.79613912105560303 0.0785016939043998718 0.635650932788848877 208 46 46
-1.73229551315307617 -0.322091937065124512 0.902807652950286865 242 12 12
-1.46564722061157227 -0.65051722526550293 0.945879340171813965 248 6 6
-0.564573109149932861 0.671121001243591309 -0.261947691440582275 94 94 160
-1.39950823783874512 0.693103969097137451 -0.785496413707733154 27 27 227
-0.7791709303855896 0.768917739391326904 0.582691729068756104 201 53 53
-1.44693863391876221 0.663510262966156006 -0.212236315011978149 100 100 154
-1.35279369354248047 0.718008816242218018 0.208297640085220337 154 100 100
-1.64054024219512939 0.479278892278671265 -0.508430302143096924 62 62 192
-0.859187602996826172 -0.787509918212890625 -0.144801497459411621 109 109 145
-1.53680145740509033 -0.593164563179016113 0.930558204650878906 246 8 8
-1.79481625556945801 0.0909240618348121643 0.595496177673339844 203 51 51
-0.200648695230484009 -0.0322100594639778137 -0.669520258903503418 42 42 212
-1.14294767379760742 0.787125110626220703 0.00311814667657017708 127 127 127
-0.20234273374080658 -0.061179187148809433 0.261422008275985718 160 94 94
-0.736605226993560791 -0.755396068096160889 0.967885732650756836 250 4 4
-1.78812921047210693 0.137303709983825684 -0.647432506084442139 44 44 210
-1.38206350803375244 0.70287090539932251 -0.885941386222839355 14 14 240
-0.399377435445785522 0.528443515300750732 0.83706212043762207 234 20 20
-0.200203269720077515 -0.0180333591997623444 -0.140284478664398193 109 109 145
-1.19686365127563477 -0.775399684906005859 -0.376599758863449097 79 79 175
-1.04926693439483643 -0.798481523990631104 -0.161419585347175598 106 106 148
-0.585901618003845215 0.684487044811248779 -0.769457519054412842 29 29 225
-0.639526486396789551 0.714184045791625977 0.616920590400695801 206 48 48
-0.615050554275512695 -0.701294422149658203 -0.0285697821527719498 123 123 131
-1.77832603454589844 -0.18495585024356842 0.946979224681854248 248 6 6
-1.7852318286895752 0.153006255626678467 -0.655738294124603271 43 43 211
-0.783019423484802246 -0.770012617111206055 -0.781167447566986084 27 27 227
-0.636064767837524414 -0.712426245212554932 -0.850153923034667969 19 19 235
-1.75462257862091064 -0.26560249924659729 -0.898258745670318604 12 12 242
-0.896661698818206787 0.793297648429870605 0.838021636009216309 234 20 20
-0.526090085506439209 -0.644522607326507568 -0.501215517520904541 63 63 191
-0.224805906414985657 0.197671756148338318 0.304046064615249634 166 88 88
-1.40619981288909912 0.68920367956161499 -0.2893715500831604 90 90 164
-0.919377267360687256 -0.795927107334136963 0.14796040952205658 146 108 108
-1.74679219722747803 0.286882191896438599 0.0649555474519729614 135 119 119
-1.50661754608154297 -0.619143486022949219 -0.13669055700302124 110 110 144
-1.40150582790374756 0.69194871187210083 0.387916892766952515 176 78 78
-1.4753868579864502 -0.643434047698974609 -0.852890312671661377 18 18 236
-1.34390604496002197 0.722307860851287842 0.847808897495269775 235 19 19
-0.396688133478164673 0.525371134281158447 0.476202547550201416 188 66 66
-1.0796743631362915 0.796022593975067139 0.468045175075531006 187 67 67
-0.96591639518737793 -0.79927361011505127 -0.324003666639328003 86 86 168
-0.587255775928497314 0.685304462909698486 -0.814340293407440186 23 23 231
-1.02651488780975342 0.799560487270355225 -0.753657996654510498 31 31 223
-0.267799675464630127 0.322308331727981567 -0.305393308401107788 88 88 166
-0.393418014049530029 0.521592080593109131 -0.00233534770086407661 127 127 127
-1.7793196439743042 0.180723130702972412 0.59371417760848999 203 51 51
-1.26992011070251465 0.753089070320129395 -0.64649045467376709 45 45 209
-1.47517454624176025 0.643590867519378662 0.878698289394378662 239 15 15
-1.70170152187347412 -0.384207040071487427 -0.909228503704071045 11 11 243
-0.639329314231872559 -0.714084506034851074 0.452534973621368408 185 69 69
-1.76505410671234131 0.233863621950149536 -0.222375735640525818 99 99 155
-0.684664070606231689 0.735230088233947754 -0.874199748039245605 16 16 238
-0.378890365362167358 0.504205107688903809 0.127264857292175293 143 111 111
-1.79287338256835938 -0.106545068323612213 0.038458067923784256 132 122 122
-1.62665033340454102 0.497302114963531494 0.875802397727966309 239 15 15
-1.49541020393371582 0.62814706563949585 -0.371122539043426514 80 80 174
-1.2899012565612793 0.745625436305999756 -0.629450976848602295 47 47 207
-0.373919874429702759 0.498019754886627197 -0.10859738290309906 113 113 141
-0.421362876892089844 -0.552430152893066406 0.480783224105834961 188 66 66
-1.40538573265075684 0.689682841300964355 -0.941284418106079102 7 7 247
-1.7688446044921875 -0.221083551645278931 -0.174461111426353455 105 105 149
-0.785523772239685059 -0.770713925361633301 -0.34017103910446167 84 84 170
-0.219607964158058167 0.176034852862358093 -0.350215226411819458 82 82 172
-0.463668376207351685 -0.593589425086975098 0.287384927272796631 164 90 90
-1.13425767421722412 0.788653850555419922 -0.201248601078987122 101 101 153
-1.79995989799499512 -0.00800951384007930756 0.552259862422943115 197 57 57
-0.989309191703796387 0.799928545951843262 0.303164303302764893 166 88 88
-0.39003068208694458 0.517626702785491943 0.732136547565460205 220 34 34
-1.6211010217666626 0.504215836524963379 -0.451590299606323242 69 69 185
-1.79618668556213379 -0.0780170932412147522 -0.264083832502365112 93 93 161
-0.324678629636764526 0.428883492946624756 0.426216751337051392 181 73 73
-1.16359949111938477 -0.783093392848968506 -0.88311922550201416 14 14 240
-1.70739078521728516 -0.373628556728363037 0.159995868802070618 147 107 107
-1.53106772899627686 0.598303556442260742 -0.0917546525597572327 115 115 139
-0.815434455871582031 0.778418660163879395 0.770705819129943848 225 29 29
-1.55235207080841064 -0.578711748123168945 0.399178892374038696 178 76 76
-1.7291330099105835 0.32918858528137207 0.873393595218658447 238 16 16
-1.76411080360412598 -0.23692767322063446 0.291095942258834839 164 90 90
-1.16020560264587402 -0.783794701099395752 -0.204424768686294556 101 101 153
-0.621681392192840576 -0.704893648624420166 -0.260760664939880371 94 94 160
-1.33214914798736572 -0.727789044380187988 -0.832846879959106445 21 21 233
-1.34127509593963623 -0.723554611206054688 0.815520286560058594 231 23 23
-1.1134258508682251 -0.791918277740478516 0.237280309200286865 157 97 97
-0.261967778205871582 -0.308720678091049194 -0.569967806339263916 54 54 200
-0.22064286470413208 0.18056151270866394 -0.440800726413726807 71 71 183
-1.77830219268798828 -0.18505607545375824 0.351684123277664185 172 82 82
-1.70763540267944336 -0.373164921998977661 -0.384864687919616699 78 78 176
-1.74599099159240723 -0.288959324359893799 0.801251053810119629 229 25 25
-1.09550809860229492 0.794278383255004883 -0.0431087203323841095 122 122 132
-0.505825340747833252 -0.629119515419006348 0.202051490545272827 153 101 101
-0.673890233039855957 0.730515182018280029 0.113480374217033386 141 113 113
-0.206002816557884216 0.0978185757994651794 0.535591781139373779 195 59 59
-1.28328418731689453 -0.748164474964141846 0.444831311702728271 184 70 70
-0.505583345890045166 -0.628929376602172852 -0.374669015407562256 79 79 175
-1.76218271255493164 0.24305880069732666 -0.874449968338012695 16 16 238
-0.300106048583984375 0.387489974498748779 0.201603963971138 153 101 101
-0.237451240420341492 0.241907835006713867 -0.420965403318405151 73 73 181
-1.76269054412841797 -0.241460457444190979 0.656315445899963379 211 43 43
-0.200825721025466919 -0.0363383926451206207 -0.954503059387207031 5 5 249
-1.78923535346984863 -0.130796164274215698 -0.311825394630432129 87 87 167
-0.206606626510620117 -0.102601006627082825 -0.104028187692165375 114 114 140
-0.461445450782775879 0.59157329797744751 0.891312003135681152 241 13 13
-0.612645447254180908 -0.699968874454498291 -0.299768060445785522 89 89 165
-0.474004417657852173 -0.602767467498779297 0.109332174062728882 141 113 113
-0.487927049398422241 0.614639163017272949 -0.61528623104095459 49 49 205
-0.501793920993804932 0.625931859016418457 -0.305079042911529541 88 88 166
-1.2280113697052002 0.766818642616271973 0.619553625583648682 206 48 48
-0.353297322988510132 0.470930635929107666 -0.556845545768737793 56 56 198
-1.67177391052246094 -0.434418946504592896 0.859937429428100586 237 17 17
-0.200022608041763306 -0.00601347163319587708 -0.469255924224853516 67 67 187
-0.453644692897796631 0.584376513957977295 0.386284351348876953 176 78 78
-0.429811537265777588 -0.561146259307861328 0.456667512655258179 185 69 69
-0.478920280933380127 0.60702216625213623 0.581250250339508057 201 53 53
-1.43662309646606445 0.670343399047851562 0.617726981639862061 206 48 48
-0.792063772678375244 -0.772504091262817383 -0.680079102516174316 40 40 214
-0.516462862491607666 -0.637331843376159668 0.360392212867736816 173 81 81
-0.899404048919677734 0.79365009069442749 -0.0803780481219291687 117 117 137
-0.240339934825897217 0.250831753015518188 0.291802912950515747 164 90 90
-1.63381028175354004 -0.488144010305404663 0.635159552097320557 208 46 46
-1.24745392799377441 0.760767102241516113 0.989799261093139648 253 1 1
-0.489457368850708008 -0.615910887718200684 -0.690803825855255127 39 39 215
-1.57844889163970947 0.552627265453338623 -0.239783734083175659 96 96 158
-0.612302482128143311 0.699778974056243896 0.363867849111557007 173 81 81
-0.215660750865936279 -0.157518088817596436 -0.405346423387527466 75 75 179
-0.45769992470741272 0.588141679763793945 0.075097694993019104 137 117 117
-1.44638383388519287 -0.663883626461029053 0.418809741735458374 180 74 74
-0.35486602783203125 -0.473077356815338135 0.825180411338806152 232 22 22
-1.7961728572845459 -0.078158155083656311 -0.700107038021087646 38 38 216
-0.904748737812042236 0.794309258460998535 -0.106867104768753052 113 113 141
-0.473809570074081421 -0.602597415447235107 -0.114952675998210907 112 112 142
-0.205196768045425415 -0.0910374373197555542 0.636556506156921387 208 46 46
-0.456349343061447144 0.58689349889755249 0.48291325569152832 189 65 65
-1.34929156303405762 -0.719718992710113525 0.331202775239944458 169 85 85
-1.4578317403793335 -0.656041264533996582 0.0192475039511919022 129 125 125
-0.837716162204742432 0.7833670973777771 0.832439601421356201 233 21 21
-0.908222973346710205 -0.79471820592880249 0.287906140089035034 164 90 90
-0.375695168972015381 0.500243425369262695 -0.522352039813995361 60 60 194
-0.491918593645095825 0.61794281005859375 0.783676624298095703 227 27 27
