ply
format ascii 1.0
element vertex 650
property float x
property float y
property float z
property uchar red
property uchar green
property uchar blue
end_header
0.278809845447540283 -0.346243798732757568 0.157447874546051025 147 107 107
0.25198855996131897 0.283687978982925415 0.978070974349975586 252 2 2
1.37957966327667236 0.704215407371520996 -0.410524129867553711 75 75 179
0.813297271728515625 0.777908802032470703 0.8390541672706604 234 20 20
0.938424408435821533 -0.797626733779907227 0.387286096811294556 176 78 78
1.37347579002380371 0.70747143030166626 -0.254442989826202393 95 95 159
0.363009899854660034 0.483987182378768921 -0.671281099319458008 41 41 213
1.78595805168151855 -0.149231433868408203 0.0427563637495040894 132 122 122
1.05225813388824463 -0.798291325569152832 0.0115949902683496475 128 126 126
0.200000301003456116 0.000694442423991858959 0.0690967440605163574 136 118 118
1.34088420867919922 0.72373884916305542 -0.665417373180389404 42 42 212
1.79602217674255371 -0.0796792581677436829 0.184660047292709351 151 103 103
0.990730345249176025 0.799946308135986328 -0.337266355752944946 84 84 170
0.44368019700050354 -0.574898481369018555 0.782903909683227539 227 27 27
0.236431702971458435 0.238670200109481812 0.0443193353712558746 133 121 121
0.54497915506362915 0.657993912696838379 -0.864624857902526855 17 17 237
0.414866596460342407 -0.545544624328613281 0.157675668597221375 147 107 107
1.62006747722625732 -0.505486249923706055 -0.581125080585479736 53 53 201
1.6544262170791626 0.460137277841567993 0.111291795969009399 141 113 113
0.722175538539886475 -0.750209033489227295 -0.914103925228118896 10 10 244
0.347467094659805298 0.462818324565887451 0.585889637470245361 202 52 52
0.312984645366668701 -0.409890145063400269 0.759585738182067871 224 30 30
1.78855252265930176 -0.134851247072219849 0.28987690806388855 164 90 90
0.290542423725128174 0.369689017534255981 -0.545946300029754639 57 57 197
0.407902181148529053 -0.537977814674377441 0.999787032604217529 254 0 0
0.37820202112197876 0.503356039524078369 -0.757971346378326416 30 30 224
1.20587551593780518 0.773055791854858398 0.548428535461425781 197 57 57
1.70884954929351807 0.370853424072265625 0.692922532558441162 215 39 39
0.422397017478942871 -0.553511321544647217 -0.652096450328826904 44 44 210
1.59926319122314453 -0.529984474182128906 0.569178938865661621 200 54 54
1.37343871593475342 0.707490980625152588 0.251028090715408325 159 95 95
1.79963231086730957 -0.0242526400834321976 0.265730410814285278 161 93 93
0.910792887210845947 0.795010745525360107 0.749715745449066162 223 31 31
0.274339228868484497 -0.336773574352264404 -0.284535020589828491 91 91 163
1.78516435623168945 -0.153352528810501099 -0.692483842372894287 39 39 215
1.33925008773803711 0.72450631856918335 -0.948434114456176758 6 6 248
1.2437368631362915 0.761966109275817871 -0.148314595222473145 108 108 146
0.571219086647033691 -0.675386488437652588 -0.548471987247467041 57 57 197
1.48146116733551025 -0.638901472091674805 0.284826934337615967 163 91 91
0.558256208896636963 0.666980087757110596 0.518202364444732666 193 61 61
0.2358856201171875 0.236916050314903259 0.0854792743921279907 138 116 116
0.767899632453918457 0.765590906143188477 0.647616565227508545 210 44 44
0.573056221008300781 0.676549375057220459 -0.310676306486129761 87 87 167
0.768464863300323486 -0.765762031078338623 0.558177769184112549 198 56 56
1.66755545139312744 0.440873891115188599 -0.363600969314575195 81 81 173
0.233734205365180969 0.229862436652183533 0.990371346473693848 253 1 1
0.399414211511611938 -0.528485298156738281 -0.404411554336547852 75 75 179
0.75148618221282959 -0.760421514511108398 0.313787162303924561 167 87 87
1.77688181400299072 0.190931066870689392 0.740008234977722168 221 33 33
0.632382333278656006 -0.710533082485198975 -0.574772357940673828 54 54 200
0.3675040602684021 0.489845782518386841 0.939059972763061523 247 7 7
0.805705010890960693 -0.776047348976135254 0.396636664867401123 178 76 76
0.733508586883544922 0.754309177398681641 0.741974890232086182 222 32 32
0.201876059174537659 0.0547556206583976746 -0.226477354764938354 98 98 156
1.67773258686065674 -0.425062984228134155 0.69417494535446167 216 38 38
1.1467282772064209 -0.786429166793823242 0.637661337852478027 208 46 46
1.68131864070892334 0.419290930032730103 0.937936067581176758 247 7 7
0.421752363443374634 -0.552837848663330078 -0.66099315881729126 43 43 211
0.527602314949035645 0.645631790161132812 -0.431323736906051636 72 72 182
1.79258930683135986 0.108637548983097076 -0.939697504043579102 7 7 247
1.5858609676361084 -0.54476320743560791 -0.998147189617156982 0 0 254
1.77505207061767578 0.198227837681770325 -0.355468094348907471 82 82 172
0.632090091705322266 0.710381805896759033 -0.382504492998123169 78 78 176
1.79951333999633789 0.0279006883502006531 0.715026021003723145 218 36 36
0.759193003177642822 0.762897074222564697 -0.158882468938827515 107 107 147
0.383552730083465576 0.509894847869873047 0.611042797565460205 205 49 49
1.47329080104827881 0.644977390766143799 -0.656549215316772461 43 43 211
1.13365781307220459 -0.788755714893341064 0.765187978744506836 225 29 29
0.307819157838821411 0.401105582714080811 0.985830307006835938 253 1 1
1.77859079837799072 0.183837771415710449 -0.756797909736633301 31 31 223
0.248100519180297852 0.273216366767883301 -0.568331658840179443 55 55 199
1.63941466808319092 0.480779379606246948 -0.664204120635986328 42 42 212
1.68281650543212891 0.416847169399261475 0.657239139080047607 211 43 43
1.77426278591156006 -0.201288536190986633 0.425605177879333496 181 73 73
1.64367783069610596 0.475056618452072144 0.511182427406311035 192 62 62
0.718270003795623779 0.74875110387802124 -0.597434401512145996 51 51 203
1.78496718406677246 0.154358282685279846 0.439922899007797241 183 71 71
0.404771119356155396 0.534511566162109375 0.263855129480361938 161 93 93
0.616216778755187988 -0.701933383941650391 0.994210124015808105 254 0 0
0.798922538757324219 -0.774317681789398193 0.89870297908782959 242 12 12
0.203009083867073059 0.0693216025829315186 -0.0601714290678501129 119 119 135
0.490413427352905273 0.616702139377593994 0.118857257068157196 142 112 112
0.211228981614112854 -0.133567512035369873 -0.983688592910766602 2 2 252
0.77264636754989624 -0.767013907432556152 0.610769391059875488 205 49 49
0.570957183837890625 0.675220131874084473 0.785185754299163818 227 27 27
0.849848330020904541 0.785782694816589355 0.67624056339263916 213 41 41
1.58481776714324951 -0.545882999897003174 0.650387823581695557 210 44 44
1.79353189468383789 -0.101524233818054199 -0.612505018711090088 49 49 205
0.201344981789588928 -0.0463698245584964752 -0.864077389240264893 17 17 237
0.502982020378112793 0.626875698566436768 0.419601768255233765 180 74 74
1.77834951877593994 -0.184856817126274109 0.133151471614837646 144 110 110
1.40809917449951172 0.688080728054046631 0.447263807058334351 184 70 70
0.538931965827941895 0.653770804405212402 -0.501591265201568604 63 63 191
1.71516692638397217 -0.358519643545150757 -0.582945585250854492 53 53 201
0.293308138847351074 0.374948829412460327 0.737784028053283691 221 33 33
0.202596679329872131 -0.0644045025110244751 -0.189709335565567017 103 103 151
0.356207340955734253 -0.474901050329208374 -0.853019177913665771 18 18 236
1.51213467121124268 0.614587724208831787 0.992374777793884277 254 0 0
0.203147530555725098 0.0708953067660331726 0.332148760557174683 169 85 85
1.00736069679260254 -0.799966156482696533 0.0328184813261032104 131 123 123
0.692490577697753906 0.738537728786468506 -0.900707066059112549 12 12 242
1.24811637401580811 0.760551333427429199 0.655035674571990967 211 43 43
1.79958927631378174 0.0256311856210231781 -0.873254120349884033 16 16 238
1.00936329364776611 -0.799945175647735596 -0.622152388095855713 48 48 206
1.79036355018615723 -0.123796120285987854 -0.562254786491394043 55 55 199
0.245933324098587036 -0.267176806926727295 -0.102164007723331451 114 114 140
0.744805693626403809 0.758205711841583252 -0.179573506116867065 104 104 150
0.200106874108314514 0.0130761321634054184 -0.360206753015518188 81 81 173
0.400255531072616577 0.529439866542816162 0.37307816743850708 175 79 79
0.201837703585624695 0.0541935265064239502 0.581239581108093262 201 53 53
1.60385584831237793 -0.524745702743530273 -0.234848126769065857 97 97 157
1.79266214370727539 -0.108105175197124481 -0.00314717274159193039 127 127 127
1.52647197246551514 0.602351486682891846 0.513697981834411621 192 62 62
1.54389393329620361 -0.586668014526367188 0.576112151145935059 200 54 54
1.65271294116973877 -0.462564349174499512 -0.457745552062988281 69 69 185
0.418285012245178223 -0.549188196659088135 -0.744136393070220947 32 32 222
0.424425244331359863 0.555620133876800537 0.355218052864074707 172 82 82
1.03737854957580566 -0.799126327037811279 0.61710059642791748 206 48 48
0.204516738653182983 0.0848904252052307129 0.647968828678131104 210 44 44
1.43288767337799072 0.672761678695678711 -0.595136940479278564 51 51 203
1.71686100959777832 -0.355120062828063965 -0.753597736358642578 31 31 223
1.79013168811798096 -0.125267356634140015 0.561884164810180664 199 55 55
0.493555068969726562 0.619284689426422119 0.33366692066192627 170 84 84
1.31065762042999268 0.737218976020812988 0.481484472751617432 188 66 66
1.74745404720306396 -0.285153239965438843 0.500498831272125244 191 63 63
0.542611122131347656 0.656350076198577881 0.294643372297286987 165 89 89
1.5353769063949585 -0.594450652599334717 -0.151626214385032654 108 108 146
0.258121848106384277 -0.29936063289642334 -0.408299475908279419 75 75 179
0.922497212886810303 -0.796236991882324219 -0.0880165770649909973 116 116 138
1.79836320877075195 -0.0511492490768432617 -0.931380808353424072 8 8 246
1.49655985832214355 -0.627238690853118896 0.93359607458114624 246 8 8
1.78252565860748291 -0.166293635964393616 -0.200753241777420044 101 101 153
1.3043140172958374 0.739860117435455322 0.720464825630187988 219 35 35
0.292364388704299927 0.373164623975753784 -0.016494259238243103 125 125 129
1.59873485565185547 0.530581414699554443 -0.714273512363433838 36 36 218
0.228957176208496094 -0.213290825486183167 0.830606520175933838 233 21 21
1.77044534683227539 -0.215438872575759888 0.778620302677154541 226 28 28
1.79573750495910645 -0.082472674548625946 -0.215480342507362366 100 100 154
1.45766746997833252 -0.656155824661254883 0.490156710147857666 189 65 65
0.31401747465133667 -0.411616295576095581 -0.489975839853286743 65 65 189
1.51305019855499268 -0.613823652267456055 0.284730106592178345 163 91 91
0.240694209933280945 0.251902192831039429 0.0455206483602523804 133 121 121
0.211810261011123657 -0.136956006288528442 -0.306420713663101196 88 88 166
0.464706182479858398 0.594525456428527832 0.814554572105407715 231 23 23
1.39628493785858154 -0.694952011108398438 -0.113490909337997437 113 113 141
0.352315336465835571 0.469579160213470459 -0.422303110361099243 73 73 181
0.575133025646209717 -0.677855491638183594 0.900983333587646484 242 12 12
0.861574769020080566 0.787933051586151123 0.26061636209487915 160 94 94
1.05035340785980225 0.798413753509521484 0.905274689197540283 242 12 12
1.66859769821166992 0.439291596412658691 -0.289456397294998169 90 90 164
0.203074589371681213 0.0700705498456954956 0.810701608657836914 230 24 24
1.40626823902130127 -0.689163327217102051 -0.789926290512084961 26 26 228
1.03786015510559082 -0.799103617668151855 0.234689101576805115 157 97 97
1.74551630020141602 -0.290181875228881836 0.164205789566040039 148 106 106
1.79685890674591064 0.0708234980702400208 0.762198925018310547 224 30 30
1.57577288150787354 -0.555414855480194092 -0.0452628247439861298 121 121 133
0.264528185129165649 -0.314771682024002075 -0.566541075706481934 55 55 199
1.64764583110809326 0.469632714986801147 -0.862166464328765869 17 17 237
1.18191349506378174 -0.779042661190032959 -0.65907365083694458 43 43 211
0.263921618461608887 0.3133506178855896 0.0853218138217926025 138 116 116
0.247409269213676453 -0.271306455135345459 0.239315569400787354 158 96 96
0.317178875207901001 -0.416839689016342163 -0.61947554349899292 48 48 206
1.45493006706237793 0.658056676387786865 -0.193088427186012268 102 102 152
1.57551026344299316 0.555686891078948975 0.432212233543395996 182 72 72
1.01616132259368896 -0.79983675479888916 -0.0468299239873886108 121 121 133
0.321715444326400757 0.424181610345840454 0.022808510810136795 130 124 124
0.408281892538070679 -0.538395464420318604 -0.556624114513397217 56 56 198
1.22292101383209229 0.768313884735107422 0.696274101734161377 216 38 38
0.802460432052612305 0.775227785110473633 -0.644385695457458496 45 45 209
1.11579108238220215 -0.791575908660888672 -0.470651477575302124 67 67 187
0.232659623026847839 0.22624930739402771 -0.499764680862426758 63 63 191
0.311721175909042358 -0.407764941453933716 0.237620696425437927 157 97 97
1.69708967208862305 0.392512321472167969 0.531587123870849609 195 59 59
1.77202951908111572 0.209691360592842102 0.746441781520843506 222 32 32
0.611030519008636475 0.699072778224945068 -0.534235775470733643 59 59 195
0.826035141944885254 -0.780856072902679443 -0.79122471809387207 26 26 228
1.64223718643188477 -0.477002561092376709 0.854907810688018799 236 18 18
0.254065901041030884 0.289106070995330811 -0.655433416366577148 43 43 211
1.76752221584320068 0.225631624460220337 0.738948702812194824 221 33 33
1.06145739555358887 -0.797635853290557861 -0.791084587574005127 26 26 228
0.943366765975952148 0.797992885112762451 0.928957462310791016 245 9 9
1.75687408447265625 0.259116917848587036 0.939982235431671143 247 7 7
0.569210171699523926 -0.674106895923614502 0.300722002983093262 165 89 89
0.865204691886901855 -0.788562119007110596 -0.250448554754257202 95 95 159
0.487244516611099243 0.614069879055023193 0.688561499118804932 215 39 39
0.787368059158325195 -0.771224796772003174 0.955044209957122803 249 5 5
0.576134443283081055 0.678482115268707275 -0.549522280693054199 57 57 197
1.24204337596893311 0.762505710124969482 -0.0582064688205718994 120 120 134
0.758757412433624268 -0.762759506702423096 0.592955350875854492 203 51 51
1.74803769588470459 -0.283618837594985962 -0.140516027808189392 109 109 145
0.573584854602813721 0.676882684230804443 -0.404306560754776001 75 75 179
1.58063387870788574 -0.55033111572265625 0.308268219232559204 166 88 88
0.398404628038406372 -0.527335762977600098 0.826045393943786621 232 22 22
1.16725122928619385 -0.782321572303771973 -0.392777204513549805 77 77 177
0.309287786483764648 0.403629332780838013 0.0875936001539230347 138 116 116
0.91936337947845459 0.795925736427307129 -0.0067001665011048317 126 126 128
0.566100776195526123 -0.672109723091125488 0.820205628871917725 232 22 22
0.861722409725189209 0.787958979606628418 -0.379530042409896851 79 79 175
0.513925313949584961 0.635398626327514648 0.159365251660346985 147 107 107
1.79935026168823242 0.0322351977229118347 -0.710039734840393066 36 36 218
1.12138533592224121 -0.790737390518188477 0.374114662408828735 175 79 79
1.7999502420425415 0.00891821738332509995 0.607909202575683594 205 49 49
1.62977457046508789 0.493339568376541138 -0.684786319732666016 40 40 214
1.29695093631744385 -0.74284595251083374 -0.00180994684342294931 127 127 127
1.5179065465927124 0.609731733798980713 -0.985329627990722656 1 1 253
1.6165308952331543 -0.509793698787689209 0.451572775840759277 185 69 69
1.79830574989318848 0.0520368590950965881 -0.4165077805519104 74 74 180
0.203158676624298096 -0.0710204988718032837 0.94463878870010376 247 7 7
0.478231161832809448 0.606429934501647949 0.765673637390136719 225 29 29
1.57115638256072998 0.560160994529724121 0.607190787792205811 204 50 50
1.45463502407073975 0.658260583877563477 -0.78905332088470459 26 26 228
1.08994054794311523 0.794928133487701416 -0.722612619400024414 35 35 219
1.78507351875305176 0.153816953301429749 0.920739352703094482 244 10 10
1.58560872077941895 -0.545034289360046387 -0.09712953120470047 115 115 139
0.703613162040710449 0.743071198463439941 -0.228652492165565491 98 98 156
1.79549026489257812 0.0848242565989494324 0.56995236873626709 200 54 54
0.431306988000869751 -0.56266176700592041 -0.334530770778656006 84 84 170
0.765463411808013916 0.764848053455352783 0.0333084128797054291 131 123 123
1.4787447452545166 0.640939533710479736 0.115072727203369141 142 112 112
0.994752109050750732 -0.799982786178588867 0.126763790845870972 143 111 111
0.203715667128562927 -0.0770146772265434265 0.593884885311126709 203 51 51
1.03713929653167725 0.799137473106384277 -0.66129767894744873 43 43 211
1.75167346000671387 -0.273837685585021973 -0.34197506308555603 83 83 171
0.264767199754714966 -0.315329581499099731 -0.977538347244262695 2 2 252
1.69643795490264893 0.393667668104171753 -0.266540288925170898 93 93 161
1.49076211452484131 0.631785213947296143 -0.796768605709075928 25 25 229
1.7388453483581543 0.306769639253616333 -0.42412152886390686 73 73 181
0.796762168407440186 -0.773753464221954346 0.575835108757019043 200 54 54
0.62930762767791748 -0.708933830261230469 -0.0754746198654174805 117 117 137
0.914553940296173096 -0.795423746109008789 -0.00683060428127646446 126 126 128
0.965574204921722412 0.799258947372436523 -0.16434285044670105 106 106 148
0.675086081027984619 0.731047868728637695 -0.831438183784484863 21 21 233
1.41307294368743896 -0.685106396675109863 0.740805268287658691 221 33 33
1.6513286828994751 -0.464511573314666748 0.21307748556137085 154 100 100
0.536715328693389893 -0.65220189094543457 -0.189665436744689941 103 103 151
0.21749192476272583 0.166376397013664246 0.848465681076049805 235 19 19
0.625907182693481445 -0.707145392894744873 -0.559322714805603027 56 56 198
1.76533329486846924 -0.232948243618011475 -0.406966149806976318 75 75 179
1.76144504547119141 -0.245359852910041809 0.221103936433792114 155 99 99
0.336866945028305054 0.447498083114624023 0.0573346279561519623 134 120 120
1.45056819915771484 0.661050915718078613 -0.376138508319854736 79 79 175
0.241722792387008667 0.254981726408004761 -0.3422527015209198 83 83 171
0.895301222801208496 0.793119251728057861 -0.78736567497253418 27 27 227
1.55344772338867188 0.577663958072662354 -0.985843181610107422 1 1 253
1.78795957565307617 0.138274073600769043 -0.0851434469223022461 116 116 138
1.70699167251586914 -0.374383211135864258 0.235204637050628662 157 97 97
1.79630208015441895 -0.0768314003944396973 -0.613672852516174316 49 49 205
0.287289559841156006 0.363378375768661499 0.0648607462644577026 135 119 119
0.958295464515686035 0.798912227153778076 -0.279614120721817017 91 91 163
1.32234680652618408 -0.732183396816253662 -0.908937692642211914 11 11 243
0.323897063732147217 0.427650362253189087 0.792313039302825928 228 26 26
0.376457959413528442 0.501193881034851074 0.617980003356933594 206 48 48
1.27669847011566162 0.750625014305114746 -0.844218015670776367 19 19 235
0.504733383655548096 0.628260314464569092 -0.914902031421661377 10 10 244
1.59258508682250977 0.537441015243530273 -0.414404928684234619 74 74 180
0.232426196336746216 -0.225456133484840393 0.787209987640380859 227 27 27
1.79608595371246338 -0.0790386945009231567 -0.307859629392623901 88 88 166
0.591628193855285645 -0.687918901443481445 -0.643284201622009277 45 45 209
0.678431212902069092 -0.732525408267974854 -0.72679513692855835 34 34 220
0.239243894815444946 0.247487694025039673 0.376468241214752197 175 79 79
0.512988150119781494 0.634680569171905518 -0.881621897220611572 15 15 239
1.24442863464355469 -0.761744499206542969 0.611874163150787354 205 49 49
1.68806719779968262 -0.408121943473815918 0.995782434940338135 254 0 0
1.79666852951049805 0.0729334279894828796 -0.685162246227264404 40 40 214
1.06181037425994873 -0.797608613967895508 -0.757477521896362305 30 30 224
0.810131371021270752 -0.777142107486724854 0.946751296520233154 248 6 6
1.14039885997772217 0.787583768367767334 0.423715859651565552 181 73 73
1.03761792182922363 -0.79911506175994873 0.273268848657608032 162 92 92
1.70493221282958984 0.378246724605560303 0.464410275220870972 186 68 68
1.14899468421936035 0.786002933979034424 0.820213198661804199 232 22 22
1.79044520854949951 -0.123273842036724091 0.866699814796447754 238 16 16
0.540074467658996582 0.654575049877166748 0.484885871410369873 189 65 65
1.69943451881408691 0.388318568468093872 -0.295849233865737915 89 89 165
0.31946447491645813 0.4205608069896698 -0.256971895694732666 94 94 160
1.44155490398406982 -0.667105138301849365 -0.378781139850616455 79 79 175
1.40966248512268066 0.687151134014129639 -0.104727014899253845 114 114 140
0.516265332698822021 -0.637181937694549561 -0.591724276542663574 52 52 202
0.816086530685424805 0.778572976589202881 -0.410561621189117432 75 75 179
1.08037042617797852 0.79595261812210083 0.156085386872291565 147 107 107
0.356303572654724121 0.475031495094299316 0.241517767310142517 158 96 96
1.52947008609771729 0.59971773624420166 -0.0870626196265220642 116 116 138
0.222783893346786499 0.189565598964691162 -0.405973613262176514 75 75 179
0.305280476808547974 0.396692276000976562 0.0240683183073997498 130 124 124
0.30168759822845459 -0.390332907438278198 -0.703021228313446045 37 37 217
0.438834011554718018 0.570169031620025635 -0.0725436657667160034 118 118 136
0.232849732041358948 -0.226893067359924316 0.626999378204345703 207 47 47
1.22923946380615234 -0.766452372074127197 0.926099419593811035 245 9 9
0.705673933029174805 -0.743889868259429932 -0.78186500072479248 27 27 227
0.696828961372375488 0.740329205989837646 -0.174497619271278381 105 105 149
1.68237102031707764 0.41757616400718689 -0.490961223840713501 64 64 190
1.74015331268310547 -0.303600311279296875 0.966077744960784912 250 4 4
0.784264147281646729 0.770362257957458496 -0.453959912061691284 69 69 185
1.7322922945022583 0.322099268436431885 -0.378795981407165527 79 79 175
1.30950403213500977 0.737704038619995117 -0.733876287937164307 33 33 221
1.27248990535736084 -0.752163052558898926 0.155842900276184082 147 107 107
1.09791362285614014 -0.793985486030578613 0.0200293362140655518 130 124 124
0.508677244186401367 -0.631349265575408936 0.943287074565887451 247 7 7
0.603110611438751221 -0.694606959819793701 -0.616344034671783447 48 48 206
1.78499805927276611 0.154201492667198181 0.968011915683746338 250 4 4
0.521034419536590576 0.64077448844909668 -0.648609578609466553 44 44 210
0.545272707939147949 0.658196866512298584 -0.739148736000061035 33 33 221
1.37033045291900635 -0.709122955799102783 0.28152090311050415 163 91 91
0.243195563554763794 0.259320378303527832 -0.355910420417785645 82 82 172
1.31427252292633057 0.735685229301452637 -0.310441374778747559 87 87 167
1.331565260887146 -0.728055238723754883 -0.292162448167800903 90 90 164
0.216310888528823853 0.160721391439437866 -0.865441620349884033 17 17 237
1.74023520946502686 0.30340045690536499 0.0788299962878227234 137 117 117
0.98093026876449585 -0.799772679805755615 -0.282348573207855225 91 91 163
0.520178675651550293 -0.640133976936340332 -0.930892109870910645 8 8 246
1.76073169708251953 0.247562870383262634 -0.865306258201599121 17 17 237
1.15185129642486572 -0.785456001758575439 -0.740345895290374756 33 33 221
1.74387216567993164 -0.29437100887298584 -0.980295777320861816 2 2 252
1.0958409309387207 0.79423832893371582 0.123507633805274963 143 111 111
1.72415792942047119 0.339993119239807129 -0.438308060169219971 71 71 183
1.71371698379516602 0.361397355794906616 0.929659247398376465 246 8 8
1.16222834587097168 -0.783378541469573975 0.488346308469772339 189 65 65
1.26113057136535645 -0.756181716918945312 -0.317662209272384644 86 86 168
0.448120921850204468 0.579162716865539551 -0.175510525703430176 105 105 149
0.200798392295837402 0.0357320569455623627 -0.224224910140037537 98 98 156
0.934774339199066162 -0.797336578369140625 0.118132427334785461 142 112 112
1.41957986354827881 0.681140720844268799 -0.885781526565551758 14 14 240
0.608064591884613037 -0.697414278984069824 0.133495092391967773 144 110 110
0.201459765434265137 -0.0483062975108623505 -0.713120400905609131 36 36 218
0.489114314317703247 0.615626394748687744 0.179538622498512268 150 104 104
1.23569118976593018 -0.764493048191070557 -0.737135171890258789 33 33 221
1.73976504802703857 0.304545164108276367 0.06212615966796875 135 119 119
1.26309871673583984 0.75549924373626709 -0.18330499529838562 104 104 150
0.446294307708740234 0.577416658401489258 -0.150671616196632385 108 108 146
0.246211692690849304 -0.267961174249649048 0.424956679344177246 181 73 73
1.2841038703918457 -0.747853577136993408 0.341303050518035889 171 83 83
0.318103671073913574 0.418350785970687866 -0.913929224014282227 10 10 244
0.815907895565032959 -0.778530716896057129 0.610308051109313965 205 49 49
0.260894656181335449 0.306142568588256836 -0.553051590919494629 56 56 198
0.860419631004333496 0.787729203701019287 0.562972784042358398 199 55 55
1.59179484844207764 0.538311123847961426 -0.951198041439056396 6 6 248
0.397486716508865356 0.526286721229553223 0.665044963359832764 212 42 42
1.44845187664031982 -0.662488460540771484 0.315803945064544678 167 87 87
1.53508996963500977 0.594708919525146484 0.9348907470703125 246 8 8
0.201812952756881714 0.0538278073072433472 0.0555961430072784424 134 120 120
1.79999816417694092 -0.00169687089510262012 0.967674493789672852 250 4 4
1.64911079406738281 0.467605710029602051 0.450624197721481323 184 70 70
1.01557517051696777 -0.799848377704620361 0.199585616588592529 152 102 102
1.77045130729675293 -0.215417638421058655 -0.257968902587890625 94 94 160
1.01774358749389648 -0.799803197383880615 0.0708684548735618591 136 118 118
0.452163159847259521 0.582987785339355469 0.436924874782562256 183 71 71
0.217538654804229736 0.166596069931983948 0.645781397819519043 209 45 45
1.79029381275177002 -0.124240167438983917 -0.940724015235900879 7 7 247
1.78464531898498535 0.155986115336418152 -0.799161732196807861 25 25 229
1.08132898807525635 0.795855283737182617 -0.10052015632390976 114 114 140
1.48313713073730469 0.637635111808776855 0.00292408792302012444 127 127 127
1.76135802268981934 0.245629832148551941 0.556626439094543457 198 56 56
1.06767773628234863 -0.797132194042205811 -0.492320537567138672 64 64 190
0.38664969801902771 -0.513616025447845459 0.207163155078887939 153 101 101
1.48847198486328125 -0.633557558059692383 0.61233675479888916 205 49 49
1.76903998851776123 -0.220403045415878296 -0.747282326221466064 32 32 222
1.08462929725646973 0.795511066913604736 -0.234792172908782959 97 97 157
0.777320981025695801 0.768384039402008057 0.147917449474334717 146 108 108
0.270525068044662476 -0.328430056571960449 -0.0766413435339927673 117 117 137
1.37400197982788086 0.707193434238433838 0.294035464525222778 164 90 90
1.54163384437561035 -0.588755309581756592 0.737277090549468994 221 33 33
0.669731318950653076 -0.728644371032714844 -0.441949784755706787 71 71 183
0.201101794838905334 -0.0419720225036144257 0.817960500717163086 231 23 23
0.213952764868736267 0.148760676383972168 -0.65218961238861084 44 44 210
1.24306082725524902 0.762181997299194336 0.117629498243331909 142 112 112
1.73022425174713135 -0.326760590076446533 -0.0575471334159374237 120 120 134
0.260166049003601074 0.304377615451812744 -0.904653728008270264 12 12 242
1.77828526496887207 0.185127139091491699 -0.425904840230941772 73 73 181
0.274391442537307739 0.336886048316955566 -0.526056110858917236 60 60 194
1.77331113815307617 0.204914182424545288 -0.330235034227371216 85 85 169
0.87781757116317749 0.790614604949951172 -0.995624780654907227 0 0 254
0.287971347570419312 0.364712506532669067 0.223114877939224243 155 99 99
0.283825963735580444 -0.356503516435623169 0.266886919736862183 161 93 93
1.12946939468383789 -0.789454042911529541 0.676008164882659912 213 41 41
0.208214491605758667 0.114349037408828735 -0.187617689371109009 103 103 151
1.65655076503753662 -0.457100749015808105 0.686228752136230469 214 40 40
1.50496554374694824 0.620491623878479004 -0.827315688133239746 22 22 232
1.61308145523071289 -0.513936877250671387 -0.267089605331420898 93 93 161
1.50756430625915527 0.618367612361907959 0.614266335964202881 205 49 49
1.5365828275680542 -0.593362331390380859 0.859680712223052979 237 17 17
0.250665664672851562 0.28017503023147583 0.7960776686668396 228 26 26
0.9869232177734375 -0.79989314079284668 0.314411461353302002 167 87 87
0.676453292369842529 0.731653988361358643 -0.282714396715164185 91 91 163
1.63774538040161133 -0.482991486787796021 0.227327972650527954 156 98 98
0.776962578296661377 -0.768280088901519775 -0.784382164478302002 27 27 227
0.575252711772918701 -0.677930474281311035 0.990500330924987793 253 1 1
0.816402316093444824 0.778647482395172119 -0.489906609058380127 65 65 189
0.27776983380317688 -0.344069153070449829 -0.860081613063812256 17 17 237
0.458543956279754639 -0.588918805122375488 -0.403017222881317139 76 76 178
1.49940586090087891 0.624975085258483887 0.848112881183624268 235 19 19
0.752489328384399414 0.760748624801635742 0.9158172607421875 244 10 10
1.77034401893615723 -0.215801194310188293 0.863310396671295166 237 17 17
1.63811421394348145 -0.482504069805145264 -0.371748149394989014 80 80 174
0.251827061176300049 0.283261775970458984 0.518245100975036621 193 61 61
1.57054197788238525 0.560786783695220947 -0.734317183494567871 33 33 221
0.456650316715240479 -0.587172150611877441 -0.304666966199874878 88 88 166
1.7962489128112793 -0.0773794651031494141 -0.40857166051864624 75 75 179
0.588079512119293213 0.685799896717071533 -0.124695412814617157 111 111 143
1.70627152919769287 0.375739872455596924 0.495965123176574707 190 64 64
1.20724475383758545 0.772689878940582275 0.357636421918869019 173 81 81
0.499939143657684326 0.624451100826263428 -0.449087947607040405 70 70 184
1.34533596038818359 -0.721625328063964844 0.924006104469299316 245 9 9
0.235524594783782959 0.235748514533042908 0.767435669898986816 225 29 29
1.20201921463012695 -0.774072527885437012 0.278756320476531982 163 91 91
1.29025638103485107 0.7454872727394104 0.0283285677433013916 131 123 123
0.228323951363563538 -0.210988342761993408 0.214787349104881287 154 100 100
0.689467430114746094 0.737271666526794434 0.999086201190948486 254 0 0
0.833587169647216797 0.782500326633453369 -0.164537593722343445 106 106 148
0.746999561786651611 -0.758940577507019043 -0.29579499363899231 89 89 165
1.16821944713592529 0.782113969326019287 -0.748960673809051514 32 32 222
1.72991025447845459 0.327461361885070801 0.190650984644889832 151 103 103
1.5118483304977417 0.614826202392578125 -0.963692903518676758 4 4 250
0.277457982301712036 -0.343413770198822021 -0.481270939111709595 66 66 188
1.79972589015960693 -0.0209384430199861526 -0.888824582099914551 14 14 240
0.290353745222091675 -0.369326651096343994 -0.329530626535415649 85 85 169
1.62032425403594971 0.505171120166778564 0.717954397201538086 219 35 35
1.17338359355926514 -0.780985355377197266 -0.790823757648468018 26 26 228
0.652584373950958252 -0.720626354217529297 0.781809210777282715 227 27 27
0.803726017475128174 0.775549173355102539 -0.542456209659576416 58 58 196
0.612903773784637451 -0.700111806392669678 0.422619730234146118 181 73 73
0.369412720203399658 0.49230039119720459 0.644045114517211914 209 45 45
0.966861486434936523 -0.799313366413116455 0.953022122383117676 249 5 5
1.5653536319732666 -0.566017091274261475 -0.21423707902431488 100 100 154
1.08960437774658203 0.79496610164642334 -0.814460217952728271 23 23 231
0.293442577123641968 0.375202089548110962 0.406135082244873047 179 75 75
1.74157619476318359 -0.300107806921005249 0.280290901660919189 163 91 91
1.31526923179626465 0.735258698463439941 0.830255746841430664 233 21 21
0.217476993799209595 0.166306197643280029 0.360939949750900269 173 81 81
0.225357472896575928 0.199822291731834412 0.633228600025177002 208 46 46
1.78759706020355225 0.140324339270591736 -0.445182919502258301 70 70 184
0.200059428811073303 -0.00975154060870409012 -0.280567914247512817 91 91 163
1.55713558197021484 0.574107944965362549 -0.777728617191314697 28 28 226
1.63267123699188232 0.489619284868240356 0.918072819709777832 244 10 10
1.77119719982147217 -0.212732136249542236 0.940032422542572021 247 7 7
1.18699395656585693 -0.777838826179504395 -0.764472305774688721 30 30 224
1.55737555027008057 0.573874950408935547 0.392981261014938354 177 77 77
1.17678606510162354 -0.780222237110137939 -0.298305362462997437 89 89 165
1.79999840259552002 0.00160342804156243801 -0.326784640550613403 85 85 169
1.20511066913604736 0.773259103298187256 -0.257497191429138184 94 94 160
1.06837165355682373 -0.797072947025299072 -0.972947299480438232 3 3 251
0.469508707523345947 -0.598814666271209717 0.83191370964050293 233 21 21
0.74979698657989502 -0.759867370128631592 -0.612003564834594727 49 49 205
1.58159124851226807 0.549319267272949219 -0.902151048183441162 12 12 242
0.216079115867614746 0.159587115049362183 -0.790174603462219238 26 26 228
0.680133938789367676 -0.733270525932312012 -0.876812517642974854 15 15 239
0.205338865518569946 -0.0922695472836494446 0.381351113319396973 176 78 78
1.67767000198364258 0.425162762403488159 0.874584555625915527 239 15 15
0.90460503101348877 0.794292032718658447 0.0673135891556739807 136 118 118
0.301932573318481445 -0.390770852565765381 0.751841843128204346 223 31 31
1.18404114246368408 0.778542757034301758 0.321155279874801636 168 86 86
0.246159195899963379 0.26781347393989563 -0.665348291397094727 42 42 212
1.26912236213684082 0.75337451696395874 0.254334241151809692 159 95 95
1.53322947025299072 -0.596377670764923096 0.000677926931530237198 127 127 127
1.58019590377807617 0.55079275369644165 0.776703238487243652 226 28 28
0.837456107139587402 0.783313155174255371 0.519114017486572266 193 61 61
1.79996705055236816 -0.00726085109636187553 0.114257611334323883 142 112 112
1.79900252819061279 -0.0399379432201385498 0.722392618656158447 219 35 35
0.202129662036895752 0.0583345629274845123 -0.884574651718139648 14 14 240
0.382725387811660767 0.508892953395843506 0.586181998252868652 202 52 52
1.69288039207458496 0.399895846843719482 0.876554310321807861 239 15 15
1.50080728530883789 0.623852550983428955 -0.0345324128866195679 123 123 131
1.45214033126831055 -0.659976541996002197 -0.0338199213147163391 123 123 131
0.91307145357131958 0.795263111591339111 0.737530827522277832 221 33 33
0.64724808931350708 0.718029320240020752 0.156092479825019836 147 107 107
1.52337682247161865 0.605042695999145508 0.65341562032699585 210 44 44
1.39841949939727783 -0.693730413913726807 -0.349242061376571655 82 82 172
0.94368898868560791 0.798015713691711426 -0.00867993198335170746 126 126 128
0.38609999418258667 0.512958884239196777 0.0119948536157608032 129 125 125
1.7210615873336792 -0.346511572599411011 0.772587954998016357 226 28 28
1.46032238006591797 0.654296040534973145 0.391279309988021851 177 77 77
1.06848776340484619 -0.797062993049621582 0.334767252206802368 170 84 84
1.11912155151367188 0.791081547737121582 -0.913246333599090576 11 11 243
0.456536948680877686 0.587067246437072754 -0.214128613471984863 100 100 154
0.207294240593910217 0.107784852385520935 -0.394410461187362671 77 77 177
1.17305600643157959 -0.781058013439178467 0.304932236671447754 166 88 88
0.64119410514831543 -0.715023279190063477 -0.830732345581054688 21 21 233
0.7393798828125 -0.756357789039611816 -0.737453222274780273 33 33 221
0.208378657698631287 0.115480080246925354 0.10763588547706604 141 113 113
0.349100053310394287 -0.465112060308456421 0.472641736268997192 187 67 67
1.79234099388122559 -0.110434621572494507 0.435592025518417358 183 71 71
0.563201010227203369 0.670228779315948486 0.0328427664935588837 131 123 123
1.05798757076263428 0.797895610332489014 -0.71327054500579834 36 36 218
1.79625344276428223 0.0773332938551902771 0.629020214080810547 207 47 47
1.2331085205078125 0.765284538269042969 -0.76432037353515625 30 30 224
0.200146898627281189 0.0153301041573286057 0.863802909851074219 237 17 17
0.471034437417984009 -0.600162863731384277 0.451410830020904541 185 69 69
1.03290295600891113 0.799323081970214844 -0.798598051071166992 25 25 229
0.736888706684112549 -0.755494832992553711 -0.40438765287399292 75 75 179
1.65784573554992676 -0.455235034227371216 -0.497913122177124023 64 64 190
1.72094333171844482 0.346757352352142334 0.384323447942733765 176 78 78
1.79696905612945557 -0.06957293301820755 0.937040448188781738 246 8 8
0.361136406660079956 -0.481511503458023071 -0.55256807804107666 57 57 197
1.79524242877960205 0.0871171355247497559 0.778726339340209961 226 28 28
1.4095609188079834 0.68721163272857666 0.61014711856842041 205 49 49
0.212548151612281799 -0.141136735677719116 0.281808316707611084 163 91 91
0.200132206082344055 0.0145434606820344925 0.191023781895637512 151 103 103
1.58494508266448975 -0.545746505260467529 0.614609420299530029 205 49 49
1.79355859756469727 0.101315490901470184 -0.202752724289894104 101 101 153
1.46748769283294678 0.649195849895477295 0.597367048263549805 203 51 51
0.677367269992828369 -0.732057452201843262 -0.0265343990176916122 124 124 130
0.555967152118682861 -0.665458381175994873 -0.334771960973739624 84 84 170
1.78815007209777832 -0.137183845043182373 0.677219033241271973 213 41 41
1.54413902759552002 -0.586440682411193848 0.398735344409942627 178 76 76
1.68897652626037598 0.406584978103637695 -0.497321188449859619 64 64 190
0.974835693836212158 0.799604117870330811 -0.241446018218994141 96 96 158
1.62662208080291748 -0.497337669134140015 -0.303428977727890015 88 88 166
0.204357430338859558 -0.0833840295672416687 0.0360550694167613983 132 122 122
0.80225372314453125 -0.775175094604492188 -0.19370780885219574 102 102 152
0.293922305107116699 -0.376104056835174561 0.650775909423828125 210 44 44
1.43313980102539062 -0.672599375247955322 -0.95425337553024292 5 5 249
1.7188795804977417 0.351015925407409668 -0.0835376828908920288 116 116 138
0.421449452638626099 -0.552520811557769775 -0.395693868398666382 77 77 177
1.67510294914245605 -0.429227262735366821 0.455409109592437744 185 69 69
1.79776525497436523 -0.0597541406750679016 0.0105013055726885796 128 126 126
0.801882505416870117 0.775080263614654541 0.323159366846084595 168 86 86
0.200721129775047302 -0.0339602269232273102 0.79705578088760376 229 25 25
0.335972189903259277 -0.446169346570968628 -0.327010542154312134 85 85 169
1.78119409084320068 -0.172440662980079651 -0.797936737537384033 25 25 229
1.0040658712387085 0.799989640712738037 0.85725855827331543 236 18 18
1.2287285327911377 0.766605019569396973 0.289033323526382446 164 90 90
1.70876169204711914 0.371021360158920288 -0.716246604919433594 36 36 218
0.574982047080993652 0.677760839462280273 0.940237283706665039 247 7 7
0.206919491291046143 -0.104991927742958069 0.586755514144897461 202 52 52
0.214533254504203796 -0.151795908808708191 0.324299603700637817 168 86 86
0.244040355086326599 -0.261772841215133667 -0.0967588648200035095 115 115 139
1.16654276847839355 0.782472670078277588 0.883271098136901855 240 14 14
1.11484861373901367 0.791713178157806396 0.459171146154403687 186 68 68
1.57568156719207764 -0.555509388446807861 0.986141979694366455 253 1 1
1.3394089937210083 0.724431872367858887 0.326825886964797974 169 85 85
1.55005955696105957 0.580891132354736328 -0.532040894031524658 59 59 195
0.649416506290435791 -0.719090521335601807 0.247365012764930725 159 95 95
0.371309161186218262 -0.494719952344894409 -0.478018790483474731 66 66 188
0.255130499601364136 0.291838020086288452 0.412651360034942627 180 74 74
0.814757108688354492 0.77825772762298584 0.351167291402816772 172 82 82
0.374727427959442139 -0.499033272266387939 0.875308454036712646 239 15 15
1.77253365516662598 0.207826152443885803 0.771808266639709473 225 29 29
0.574566781520843506 -0.677500247955322266 0.097920738160610199 139 115 115
1.7666771411895752 0.228486523032188416 -0.773242950439453125 28 28 226
0.854034066200256348 0.786571025848388672 -0.179305613040924072 104 104 150
0.68416208028793335 0.735014557838439941 -0.610519170761108398 49 49 205
1.75484681129455566 -0.264964550733566284 0.982018589973449707 252 2 2
1.63935983180999756 -0.480852305889129639 -0.366761505603790283 80 80 174
0.206265181303024292 0.099925115704536438 0.385941982269287109 176 78 78
0.52064049243927002 -0.640479862689971924 -0.632664680480957031 46 46 208
1.76848721504211426 0.222322821617126465 -0.437013894319534302 71 71 183
0.330979347229003906 -0.438647180795669556 -0.702234625816345215 37 37 217
1.61444306373596191 -0.512308180332183838 0.942483365535736084 247 7 7
1.51411855220794678 -0.612929165363311768 -0.997428357601165771 0 0 254
0.266697049140930176 0.319791734218597412 -0.327868938446044922 85 85 169
0.347875624895095825 -0.46339377760887146 0.579188704490661621 201 53 53
0.337228089570999146 0.448032796382904053 0.682684540748596191 214 40 40
1.67421865463256836 0.430614888668060303 0.159019291400909424 147 107 107
1.00964534282684326 0.799941837787628174 0.975265324115753174 251 3 3
0.734220683574676514 0.754560410976409912 0.421384900808334351 181 73 73
1.1894458532333374 -0.777245283126831055 0.00890409760177135468 128 126 126
1.31403100490570068 -0.735788345336914062 -0.408053606748580933 75 75 179
0.201778188347816467 0.053309805691242218 -0.255790859460830688 94 94 160
0.335218340158462524 0.445045322179794312 -0.0824581608176231384 116 116 138
0.347665369510650635 0.463097751140594482 0.772728860378265381 226 28 28
0.214148268103599548 0.149790003895759583 -0.2559184730052948 94 94 160
0.613411188125610352 0.700392067432403564 0.993170619010925293 254 0 0
1.30930304527282715 -0.73778831958770752 -0.94514000415802002 6 6 248
1.38572835922241211 -0.700866341590881348 0.1716814786195755 149 105 105
0.372873574495315552 0.496701568365097046 0.496078222990036011 190 64 64
0.31675255298614502 -0.416140496730804443 0.112749919295310974 141 113 113
0.210987642407417297 0.132134422659873962 -0.652560532093048096 44 44 210
0.210031270980834961 0.126290977001190186 -0.913400828838348389 11 11 243
0.294966757297515869 0.378058344125747681 0.32880738377571106 169 85 85
0.768386304378509521 -0.765738248825073242 -0.997665286064147949 0 0 254
0.798829257488250732 0.774293422698974609 0.575471341609954834 200 54 54
0.674472510814666748 -0.730774819850921631 0.217489644885063171 155 99 99
0.463303655385971069 0.593259632587432861 0.938730359077453613 247 7 7
1.7132561206817627 -0.362306028604507446 0.380785554647445679 176 78 78
0.280527561902999878 0.349799096584320068 -0.914029300212860107 10 10 244
1.7517249584197998 0.273696273565292358 0.677585124969482422 213 41 41
1.30871498584747314 0.738034546375274658 -0.195850908756256104 102 102 152
1.67397177219390869 0.431001216173171997 0.947708010673522949 248 6 6
0.486018210649490356 -0.613043785095214844 -0.297159105539321899 89 89 165
0.597668170928955078 0.691468775272369385 0.824154853820800781 232 22 22
0.200030922889709473 0.00703352130949497223 -0.429286867380142212 72 72 182
0.719250500202178955 -0.749119281768798828 -0.731056392192840576 34 34 220
0.205120190978050232 -0.0903664231300354004 0.356610685586929321 172 82 82
0.542892575263977051 0.656546115875244141 -0.338280439376831055 84 84 170
1.1423497200012207 -0.787233471870422363 -0.559463024139404297 56 56 198
1.41908633708953857 0.681444525718688965 -0.641377806663513184 45 45 209
0.765692412853240967 -0.764918267726898193 0.282235503196716309 163 91 91
1.75879776477813721 -0.253428399562835693 -0.580922961235046387 53 53 201
0.934466719627380371 -0.797311365604400635 -0.80411374568939209 24 24 230
0.452898979187011719 0.58367842435836792 -0.248768731951713562 95 95 159
0.769588232040405273 -0.766100764274597168 -0.654809057712554932 44 44 210
0.696119785308837891 -0.740038394927978516 0.102720499038696289 140 114 114
1.5690767765045166 -0.562273621559143066 -0.432854920625686646 72 72 182
1.07694745063781738 -0.796290814876556396 -0.315700232982635498 87 87 167
1.6050112247467041 -0.523413181304931641 0.510657727718353271 192 62 62
0.252189934253692627 0.284218430519104004 0.956677854061126709 249 5 5
0.21523168683052063 -0.155366316437721252 -0.73555457592010498 33 33 221
1.63924765586853027 -0.481001436710357666 -0.899282217025756836 12 12 242
0.494738966226577759 -0.620250999927520752 -0.885205924510955811 14 14 240
1.47230625152587891 0.645698666572570801 -0.344920128583908081 83 83 171
1.79762613773345947 0.0615836530923843384 0.519127130508422852 193 61 61
1.71249306201934814 -0.363804429769515991 0.547398567199707031 197 57 57
0.447627931833267212 -0.57869255542755127 0.537818193435668945 196 58 58
1.7981647253036499 -0.0541580580174922943 -0.678337931632995605 41 41 213
0.384326130151748657 0.51082843542098999 0.229996904730796814 156 98 98
1.79145920276641846 -0.116585887968540192 0.670358180999755859 212 42 42
0.20021289587020874 0.0184553433209657669 -0.296174913644790649 89 89 165
1.64502918720245361 0.473220229148864746 -0.244676560163497925 96 96 158
0.850683867931365967 0.785941898822784424 -0.110647924244403839 113 113 141
1.00130748748779297 0.799998939037322998 -0.75707632303237915 30 30 224
1.66200590133666992 -0.449163913726806641 0.956136345863342285 249 5 5
1.64150905609130859 -0.477981358766555786 0.591794490814208984 202 52 52
1.39854514598846436 0.693658232688903809 -0.085374489426612854 116 116 138
0.821843326091766357 0.779910385608673096 -0.145723938941955566 108 108 146
0.455341815948486328 -0.585958600044250488 -0.773950874805450439 28 28 226
1.78619778156280518 -0.147962763905525208 -0.848659813404083252 19 19 235
1.09082245826721191 0.794827818870544434 0.75247955322265625 223 31 31
1.7864152193069458 -0.146803140640258789 -0.855487227439880371 18 18 236
0.69777148962020874 -0.740714490413665771 0.645103573799133301 209 45 45
0.407571405172348022 0.537613570690155029 -0.465556859970092773 68 68 186
1.71050059795379639 -0.367680519819259644 0.703412353992462158 217 37 37
0.289426058530807495 -0.367538660764694214 -0.554714560508728027 56 56 198
0.976004242897033691 -0.799640059471130371 -0.810162961483001709 24 24 230
0.232095465064048767 0.224327057600021362 0.0244965348392724991 130 124 124
1.1379539966583252 0.788015663623809814 -0.0543094798922538757 120 120 134
0.29118695855140686 -0.370923250913619995 0.0503316968679428101 133 121 121
1.79966747760772705 -0.023062465712428093 -0.618540048599243164 48 48 206
1.53447055816650391 0.595265746116638184 0.432702004909515381 182 72 72
0.234226271510124207 -0.231496438384056091 -0.969611167907714844 3 3 251
1.34988164901733398 -0.719432294368743896 0.517499208450317383 193 61 61
1.28790175914764404 0.746399760246276855 0.704046428203582764 217 37 37
1.10238134860992432 0.793421745300292969 0.396424859762191772 178 76 76
1.55923080444335938 -0.572067141532897949 -0.40921628475189209 75 75 179
0.2199716717004776 0.177639544010162354 0.612472832202911377 205 49 49
0.211200699210166931 0.133400365710258484 0.876787006855010986 239 15 15
0.882665038108825684 0.791348516941070557 0.504536986351013184 191 63 63
1.16163301467895508 0.783501625061035156 0.409778743982315063 179 75 75
1.7973783016204834 0.0647129938006401062 -0.854033827781677246 18 18 236
0.390592247247695923 -0.518287777900695801 0.452813118696212769 185 69 69
0.486764401197433472 -0.613668680191040039 0.14461730420589447 145 109 109
1.56676924228668213 0.564599573612213135 -0.989281535148620605 1 1 253
0.206418707966804504 -0.101137228310108185 -0.643098056316375732 45 45 209
1.57696187496185303 0.554179549217224121 -0.916656196117401123 10 10 244
1.23318421840667725 0.765261471271514893 -0.127347573637962341 111 111 143
0.601677179336547852 0.693785965442657471 0.419050902128219604 180 74 74
1.75700962543487549 0.258720904588699341 0.396620035171508789 178 76 76
0.653197050094604492 0.720921456813812256 0.664131522178649902 212 42 42
1.46127593517303467 0.653624176979064941 -0.150087282061576843 108 108 146
1.08440816402435303 -0.79553455114364624 0.169629335403442383 149 105 105
0.51454472541809082 0.635872006416320801 -0.426111131906509399 73 73 181
0.355191349983215332 -0.473520666360855103 0.326825410127639771 169 85 85
0.280448019504547119 0.349635481834411621 0.794159471988677979 228 26 26
